<?xml version="1.0"?>
<opencv_storage>
<Depth type_id="opencv-matrix">
  <rows>22</rows>
  <cols>447</cols>
  <dt>f</dt>
  <data>
    -1. -1. -1. -1. -1. 1.24903083e+00 -1. -1. -1. -1. -1. -1. -1. -1. 9.96020973e-01 9.79387999e-01 9.90043879e-01 9.95323002e-01 9.84181046e-01 1.00499427e+00 1.02172971e+00 -1. 1.00930607e+00 1.03749263e+00 1.03072286e+00 1.03129768e+00 1.04088748e+00 1.04286432e+00 1.08139646e+00 1.03457212e+00 1.06839430e+00 -1. -1. -1. -1. -1. -1. -1. -1. -1. -1. -1. -1. -1. -1. -1. -1. -1. -1. -1. -1. -1. 1.01624060e+00 1.02143860e+00 1.02356231e+00 1.01773763e+00 1.01600921e+00 1.01649976e+00 1.01828587e+00 1.01874459e+00 1.01271951e+00 1.02844417e+00 -1. 1.01903832e+00 1.01164687e+00 1.03015244e+00 1.03958404e+00 1.03541124e+00 -1. 1.04781687e+00 1.06264198e+00 1.06578815e+00 1.06697464e+00 -1. -1. -1. 1.16896677e+00 1.14578962e+00 1.15350890e+00 1.13039184e+00 1.15183938e+00 1.16938317e+00 1.20703781e+00 1.18083692e+00 1.23253405e+00 1.22153723e+00 1.19190001e+00 1.16960132e+00 1.15490496e+00 1.17833614e+00 1.19234967e+00 1.17675114e+00 -1. -1. 1.20984483e+00 1.20536995e+00 1.18338859e+00 -1. -1. -1. -1. 8.27069283e-01 -1. -1. -1. 1.10254276e+00 1.06840873e+00 1.07430923e+00 1.08204520e+00 1.04493475e+00 1.00276601e+00 9.92938459e-01 9.94619966e-01 1.00512278e+00 -1. 9.95965838e-01 -1. -1. -1. -1. -1. -1. -1. -1. -1. -1. -1. -1. 1.14664185e+00 1.09459531e+00 -1. -1. -1. -1. -1. -1. -1. -1. -1. -1. -1. -1. -1. -1. -1. -1. -1. -1. -1. -1. -1. -1. -1. -1. -1. -1. -1. -1. -1. 1.12862003e+00 -1. -1. -1. -1. -1. -1. -1. -1. 1.10233164e+00 1.10954022e+00 1.10647738e+00 1.11024213e+00 1.12024713e+00 1.12762153e+00 1.12764704e+00 1.12306929e+00 1.11496806e+00 1.11029446e+00 1.10783386e+00 1.09339535e+00 1.11361527e+00 1.11131513e+00 1.10556543e+00 1.09183764e+00 1.05184937e+00 1.08923066e+00 1.10091221e+00 1.09514606e+00 1.11657941e+00 1.07675540e+00 1.13296735e+00 1.15109301e+00 1.08560383e+00 1.07805789e+00 1.06640410e+00 1.05083001e+00 1.04676580e+00 1.11828554e+00 1.11766338e+00 1.11707366e+00 1.11964524e+00 1.13333702e+00 1.11420500e+00 1.12699258e+00 1.10157955e+00 1.10928404e+00 1.11883533e+00 1.11301303e+00 1.12391222e+00 1.11971414e+00 1.10855544e+00 -1. 1.09834635e+00 1.07824361e+00 1.09264183e+00 -1. -1. -1. 1.10290420e+00 1.09619379e+00 1.08107555e+00 1.10588920e+00 1.10779679e+00 1.11275077e+00 1.10692406e+00 1.11639702e+00 1.11237824e+00 1.11405742e+00 -1. -1. -1. -1. -1. -1. -1. 1.17697728e+00 1.17102182e+00 1.18524635e+00 -1. -1. -1. -1. 1.10403335e+00 1.11618352e+00 1.10563612e+00 1.13015616e+00 1.13910210e+00 1.06948125e+00 1.07884133e+00 1.04578912e+00 -1. -1. -1. -1. 9.30503190e-01 9.28146064e-01 9.26757753e-01 -1. -1. -1. -1. -1. -1. -1. -1. -1. -1. -1. -1. -1. -1. -1. -1. -1. -1. -1. -1. -1. -1. -1. -1. -1. -1. -1. -1. -1. -1. -1. -1. -1. -1. -1. -1. -1. -1. -1. -1. -1. -1. -1. -1. -1. -1. -1. -1. -1. -1. -1. -1. -1. -1. -1. -1. -1. -1. -1. -1. 1.11910713e+00 1.11588061e+00 1.09033418e+00 1.10651064e+00 1.09470379e+00 1.09579587e+00 1.09918129e+00 1.09857750e+00 -1. -1. -1. -1. -1. -1. -1. -1. -1. -1. 1.00652027e+00 1.00773787e+00 1.01691270e+00 1.01925826e+00 1.03122830e+00 8.50834787e-01 -1. -1. -1. -1. -1. -1. -1. -1. -1. -1. -1. -1. -1. -1. -1. -1. -1. -1. -1. -1. -1. -1. -1. -1. -1. -1. -1. -1. -1. -1. -1. -1. 8.83759766e+01 9.86192226e+00 1.26552391e+01 8.18486452e-01 8.07050526e-01 8.04101288e-01 8.32026124e-01 7.93450236e-01 8.47292960e-01 8.75055254e-01 8.70364487e-01 8.56626034e-01 8.48345876e-01 8.44025135e-01 -1. -1. -1. -1. -1. -1. -1. -1. -1. -1. -1. -1. -1. -1. -1. -1. -1. -1. -1. -1. -1. -1. -1. -1. -1. -1. -1. -1. 8.13861966e-01 8.20235550e-01 8.24461401e-01 8.24913800e-01 8.39187503e-01 8.28276396e-01 8.30147266e-01 8.25977862e-01 8.25667024e-01 8.27564120e-01 8.46728325e-01 8.58197629e-01 8.61001968e-01 8.50373387e-01 8.72261226e-01 -1. -1. -1. 8.96021962e-01 8.85306239e-01 8.98727655e-01 9.02789593e-01 -1. -1. -1. -1. -1. -1. -1. -1. -1. -1.
    -1. -1. -1. -1. -1. -1. -1. -1. -1. -1. -1. -1. -1. -1. -1. 9.91816223e-01 9.95569050e-01 1.00855494e+00 9.98920918e-01 1.00032747e+00 1.01327240e+00 1.01804030e+00 1.00886047e+00 1.01537514e+00 1.01820838e+00 1.02038944e+00 1.00370407e+00 1.02409363e+00 1.05203927e+00 1.08908248e+00 1.05907941e+00 -1. -1. -1. -1. -1. -1. -1. -1. -1. -1. -1. -1. -1. -1. -2.00164833e+01 -3.11093578e+01 -1. -1. -1. -1. -1. 9.97108638e-01 1.01196444e+00 1.01164365e+00 1.01986742e+00 1.01745963e+00 1.02085996e+00 1.01169384e+00 1.02205658e+00 1.01570427e+00 -1. -1. 1.00193155e+00 1.00988472e+00 1.02017021e+00 1.01775694e+00 1.02853143e+00 -1. 1.05307508e+00 1.07026172e+00 1.06924725e+00 1.06600630e+00 1.05645895e+00 1.05346429e+00 1.07215035e+00 1.14357400e+00 -1. -1. 1.11977506e+00 1.12394059e+00 1.12397909e+00 1.11385643e+00 1.13101065e+00 1.23943341e+00 1.16173577e+00 1.24757624e+00 1.24460280e+00 1.23512912e+00 1.20919979e+00 1.17987907e+00 -1. -1. -1. 1.20242178e+00 1.20432270e+00 1.22689497e+00 1.18901396e+00 -1. -1. -1. -1. -1. -1. -1. 1.08576715e+00 1.05907702e+00 1.06212020e+00 1.06114280e+00 1.07013047e+00 1.04030240e+00 1.07634604e+00 1.01367223e+00 9.96089995e-01 9.94384646e-01 1.00062943e+00 -1. -1. -1. -1. -1. -1. -1. -1. -1. -1. -1. -1. -1. -1. -1. 1.07206655e+00 -1. -1. -1. -1. -1. -1. -1. -1. -1. -1. -1. -1. -1. -1. -1. -1. -1. -1. -1. -1. -1. -1. -1. -1. -1. -1. -1. -1. -1. -1. -1. -1. -1. -1. -1. -1. 1.10990405e+00 1.12897551e+00 1.12625241e+00 1.11658990e+00 1.12001252e+00 1.11530614e+00 1.13111222e+00 1.12703955e+00 1.13318717e+00 1.10442674e+00 1.10849011e+00 1.11423624e+00 1.11371827e+00 1.10696220e+00 1.10558331e+00 1.11378145e+00 1.11127782e+00 1.11220539e+00 1.10729074e+00 1.10592055e+00 1.20709813e+00 1.09808803e+00 1.20726812e+00 1.07849121e+00 1.07589030e+00 1.10330832e+00 1.09436238e+00 1.06504631e+00 1.11459661e+00 1.11199033e+00 1.10641003e+00 1.11262012e+00 1.11839199e+00 1.12076998e+00 1.12779939e+00 1.11088777e+00 1.10828745e+00 1.11389577e+00 1.11270535e+00 1.11618268e+00 1.12105632e+00 1.12176585e+00 -1. -1. 1.08446145e+00 1.09063160e+00 1.10865390e+00 1.09095454e+00 1.09691811e+00 1.08775687e+00 1.10903978e+00 1.10903525e+00 1.11079967e+00 -1. 1.10674131e+00 1.11169803e+00 1.10161304e+00 1.11114490e+00 1.11276913e+00 1.09814465e+00 1.10120213e+00 1.11048186e+00 -1. -1. -1. -1. -1. 1.18499637e+00 1.19676352e+00 1.19739175e+00 -1. -1. -1. -1. 1.10795105e+00 1.12400174e+00 1.14324713e+00 1.13708925e+00 1.15348911e+00 1.09158349e+00 1.05958128e+00 1.07841241e+00 -1. -1. -1. -1. 9.34197128e-01 9.30885971e-01 -1. 9.26733375e-01 -1. -1. -1. -1. -1. -1. -1. -1. -1. -1. -1. -1. -1. -1. -1. -1. -1. -1. -1. -1. -1. -1. -1. -1. -1. -1. -1. -1. -1. -1. -1. -1. -1. -1. -1. -1. -1. -1. -1. -1. -1. -1. -1. -1. -1. -1. -1. -1. -1. -1. -1. -1. -1. -1. -1. -1. -1. -1. -1. 1.13113129e+00 1.11531293e+00 1.09766340e+00 1.09855080e+00 1.09769249e+00 1.10357344e+00 1.09621716e+00 1.08349431e+00 -1. -1. -1. -1. -1. -1. -1. -1. -1. 1.04067612e+00 1.03713667e+00 1.02729285e+00 1.00314987e+00 1.01959836e+00 1.01273704e+00 1.05554855e+00 -1. -1. -1. -1. -1. -1. -1. -1. -1. -1. -1. -1. -1. -1. -1. -1. -1. -1. -1. -1. -1. -1. 1.28370428e+00 1.31868017e+00 1.33992040e+00 -1. -1. -1. -1. -1. -1. -1. 3.39224701e+01 1.77894974e+01 8.32471728e-01 -1. -1. 8.38548779e-01 7.71386743e-01 8.09336364e-01 7.55962491e-01 8.20999205e-01 -1. 8.42682540e-01 8.45637560e-01 8.40277255e-01 -1. -1. -1. -1. -1. -1. -1. -1. -1. -1. -1. -1. -1. -1. -1. -1. -1. -1. -1. -1. -1. -1. -1. -1. -1. -1. -1. -1. -1. 8.15453708e-01 8.25569272e-01 8.34319592e-01 8.35626066e-01 8.32116425e-01 8.28714252e-01 8.30593705e-01 8.30879033e-01 8.28411162e-01 8.44290435e-01 8.55256319e-01 8.39944065e-01 8.64245534e-01 8.48917902e-01 -1. -1. 9.26457047e-01 9.43087935e-01 8.91096890e-01 9.13264930e-01 -1. -1. -1. -1. -1. -1. -1. -1. -1. -1. -1.
    -1. -1. -1. -1. -1. -1. -1. -1. -1. -1. -1. -1. -1. -1. -1. -1. 9.96294796e-01 -1. -1. 1.02550256e+00 1.01691532e+00 1.01928210e+00 1.01263237e+00 1.01332259e+00 1.01125360e+00 9.97028291e-01 1.02371562e+00 1.02762163e+00 1.03418624e+00 1.06358480e+00 1.08487236e+00 -1. -1. -1. -1. -1. -1. -1. -1. -1. -1. -1. -1. -1. -1. -1. -3.86994820e+01 -1. -1. -1. -1. -1. -1. 1.01076055e+00 1.01503289e+00 1.01881754e+00 1.01341712e+00 1.01408517e+00 1.01606679e+00 1.01830339e+00 1.01646686e+00 -1. -1. -1. 1.01085174e+00 1.00964105e+00 1.01368856e+00 1.01688027e+00 1.04072940e+00 1.05087209e+00 1.05592906e+00 1.05301106e+00 1.06543601e+00 1.08132195e+00 1.09283006e+00 1.20298338e+00 1.20562196e+00 1.19749427e+00 1.11837709e+00 1.13766420e+00 -1. 1.12637210e+00 1.13000929e+00 1.11898124e+00 1.13422775e+00 1.14538491e+00 1.21085393e+00 1.25110126e+00 1.23010314e+00 1.28274632e+00 -1. -1. -1. 1.16791773e+00 1.21587968e+00 1.21723127e+00 1.20852757e+00 1.20593596e+00 1.20484734e+00 -1. -1. -1. -1. -1. -1. -1. 1.07641673e+00 1.06210148e+00 1.05644917e+00 1.05816650e+00 1.04893386e+00 1.03763080e+00 9.88342106e-01 9.76669312e-01 9.93059039e-01 9.96559441e-01 -1. -1. -1. -1. -1. -1. -1. -1. -1. -1. -1. -1. 1.07673573e+00 1.08200467e+00 1.07009804e+00 1.07773435e+00 -1. -1. -1. -1. -1. -1. -1. 9.72293377e-01 9.75773335e-01 9.85695302e-01 1.04015040e+00 -1. 1.00453031e+00 -1. -1. -1. -1. -1. -1. -1. -1. -1. -1. -1. -1. -1. -1. -1. -1. -1. -1. -1. -1. -1. -1. -1. 1.12595248e+00 1.13176227e+00 1.13976204e+00 1.14422905e+00 1.12339628e+00 1.12338221e+00 1.14095700e+00 1.12825572e+00 1.12417436e+00 1.04403853e+00 1.03724062e+00 1.08154523e+00 1.08006406e+00 1.10483587e+00 1.11014855e+00 1.10479295e+00 1.11979604e+00 1.11954641e+00 1.11849201e+00 1.10963142e+00 1.16175413e+00 1.13879025e+00 1.14717925e+00 1.18668830e+00 1.16253448e+00 1.14373648e+00 1.12308049e+00 1.10733080e+00 1.10402775e+00 1.10481727e+00 1.10738480e+00 1.10990882e+00 1.11461711e+00 1.11529648e+00 1.10766709e+00 1.09664357e+00 1.10344744e+00 1.11165237e+00 1.11892962e+00 1.11543965e+00 1.11649454e+00 1.10818064e+00 1.09814775e+00 1.09542346e+00 -1. -1. -1. 1.10195279e+00 1.10696065e+00 1.14079702e+00 -1. -1. -1. 1.11207330e+00 1.11092889e+00 1.10290909e+00 1.09476340e+00 1.08891201e+00 1.10315728e+00 1.08887601e+00 1.09675944e+00 1.12551951e+00 1.11653507e+00 -1. -1. -1. -1. -1. -1. -1. -1. -1. -1. -1. -1. 1.10584915e+00 1.14314067e+00 1.02779675e+00 1.03529406e+00 -1. -1. -1. -1. -1. -1. -1. 9.39356208e-01 9.27781522e-01 9.26050067e-01 9.22326267e-01 -1. -1. -1. -1. -1. -1. -1. -1. -1. -1. -1. -1. -1. -1. -1. -1. -1. -1. -1. -1. -1. -1. -1. -1. -1. -1. -1. -1. -1. -1. -1. -1. -1. -1. -1. -1. -1. -1. -1. -1. -1. -1. -1. -1. -1. -1. -1. -1. -1. -1. -1. -1. -1. -1. -1. -1. -1. -1. -1. -1. 1.10813820e+00 1.10054994e+00 1.09934986e+00 1.09794033e+00 1.09962487e+00 1.09847021e+00 1.09293926e+00 -1. -1. -1. -1. -1. -1. -1. -1. 1.02433002e+00 1.01552951e+00 1.02885199e+00 1.02504587e+00 1.03016400e+00 1.03121912e+00 1.01530910e+00 8.57962191e-01 -1. -1. -1. -1. -1. -1. -1. -1. -1. -1. -1. -1. -1. -1. -1. -1. -1. -1. -1. -1. -1. -1. 1.30322909e+00 1.30736125e+00 1.30624783e+00 -1. -1. -1. -1. -1. -1. -1. 8.33750486e-01 1.93333778e+01 8.24054301e-01 -1. -1. 8.22055995e-01 8.22889030e-01 7.61318862e-01 7.47721374e-01 8.10404956e-01 8.16316009e-01 8.34764600e-01 8.40807617e-01 8.47976565e-01 -1. -1. -1. -1. -1. -1. -1. -1. -1. -1. -1. -1. -1. -1. -1. -1. -1. -1. -1. -1. -1. -1. -1. -1. -1. -1. -1. -1. -1. 8.23973000e-01 8.18437994e-01 8.33996952e-01 8.16960394e-01 8.40211213e-01 8.35621595e-01 8.39611590e-01 8.31442237e-01 8.36981833e-01 8.45714450e-01 8.67555737e-01 8.77894640e-01 8.85271251e-01 8.64435554e-01 -1. 8.77658844e-01 9.68418777e-01 9.71177161e-01 9.02809024e-01 9.44249511e-01 9.62566137e-01 -1. -1. -1. -1. -1. -1. -1. -1. -1. -1.
    -1. -1. -1. -1. -1. -1. -1. -1. -1. -1. -1. -1. -1. -1. -1. -1. -1. -1. -1. 1.00794184e+00 1.00870407e+00 9.88753676e-01 1.00170243e+00 1.01883066e+00 1.00869715e+00 9.96615827e-01 1.01695168e+00 1.02603805e+00 1.02119553e+00 1.09722316e+00 1.09155917e+00 -1. -1. -1. -1. -1. -1. -1. -1. -1. -1. -1. -1. -1. -1. -1. -1. -1. -1. -1. -1. -1. -1. 1.01302397e+00 1.01322412e+00 1.01580787e+00 1.01079869e+00 1.00845313e+00 1.01600611e+00 1.00562930e+00 1.01013303e+00 1.02193809e+00 -1. -1. 1.00666177e+00 1.00314569e+00 1.01125741e+00 1.02250004e+00 1.03634012e+00 1.05244529e+00 1.05135262e+00 1.10188532e+00 1.08532333e+00 1.07893920e+00 1.05294931e+00 1.12043929e+00 1.12836397e+00 1.13088226e+00 1.15081155e+00 1.15942860e+00 1.13760293e+00 -1. -1. 1.15169442e+00 1.16994703e+00 1.15216291e+00 1.22898078e+00 1.24050677e+00 1.22354388e+00 -1. -1. -1. 1.19012535e+00 1.19201887e+00 1.18655205e+00 1.17829406e+00 1.19602251e+00 1.19739246e+00 -1. -1. -1. -1. -1. -1. -1. -1. -1. 1.04745901e+00 1.05487394e+00 1.06823516e+00 -1. 1.02264082e+00 -1. 1.01236618e+00 9.93436098e-01 -1. -1. -1. -1. -1. -1. -1. -1. -1. -1. -1. -1. 1.07712591e+00 1.06928575e+00 1.11171639e+00 1.11121440e+00 1.07413554e+00 -1. -1. -1. -1. -1. -1. -1. 9.81085658e-01 9.62007582e-01 9.59750473e-01 9.38144207e-01 1.01410842e+00 1.01257074e+00 -1. -1. -1. -1. -1. -1. -1. -1. -1. -1. -1. -1. -1. -1. -1. -1. -1. -1. -1. -1. -1. -1. -1. 1.10563576e+00 1.11494946e+00 1.10774422e+00 1.11603832e+00 1.11925864e+00 1.12480342e+00 1.12344933e+00 1.10568058e+00 1.08792090e+00 1.04827452e+00 1.07436419e+00 1.10718429e+00 1.10899770e+00 -1. -1. 1.10208964e+00 1.10546994e+00 1.10821462e+00 1.10803330e+00 1.09893608e+00 1.10143423e+00 -1. 1.21095872e+00 1.15389454e+00 1.18755245e+00 1.13788474e+00 1.12144220e+00 1.12045527e+00 1.09926736e+00 1.11297154e+00 1.09402025e+00 1.11273229e+00 1.10389829e+00 1.11213040e+00 1.11430275e+00 1.09302807e+00 1.10033107e+00 1.10104680e+00 1.09959388e+00 1.09607828e+00 1.09619236e+00 1.08180642e+00 1.06797040e+00 1.09279788e+00 -1. -1. -1. 1.10691738e+00 1.11615682e+00 1.11130822e+00 1.13384569e+00 1.10695243e+00 -1. 1.10675049e+00 1.10538125e+00 1.10843837e+00 1.10666537e+00 1.10623872e+00 1.11165547e+00 1.13325751e+00 1.13094234e+00 1.11574018e+00 -1. 1.11042094e+00 -1. -1. -1. -1. -1. -1. -1. -1. -1. -1. -1. 1.04827106e+00 1.08800197e+00 1.13053656e+00 1.11843872e+00 1.04096651e+00 -1. -1. -1. -1. -1. 9.30916548e-01 9.41466451e-01 9.39296246e-01 9.40259755e-01 9.39746737e-01 -1. -1. -1. -1. -1. -1. -1. -1. -1. -1. -1. -1. -1. -1. -1. -1. -1. -1. -1. -1. -1. -1. -1. -1. -1. -1. -1. -1. -1. -1. -1. -1. -1. 1.09922850e+00 -1. -1. -1. -1. -1. -1. -1. -1. -1. -1. -1. -1. -1. -1. -1. -1. -1. -1. -1. -1. -1. -1. -1. -1. 1.13172424e+00 1.10348094e+00 1.11729074e+00 1.09709322e+00 1.09922993e+00 1.10093558e+00 1.10093629e+00 1.09646893e+00 1.10419321e+00 -1. -1. -1. -1. 1.19661438e+00 -1. 1.09526634e+00 1.04119337e+00 1.00918221e+00 1.02210796e+00 1.02698815e+00 1.02366364e+00 9.96038437e-01 1.01976752e+00 1.01356554e+00 1.04843652e+00 8.53583753e-01 -1. -1. -1. -1. 8.52322102e-01 -1. 8.46545815e-01 -1. -1. -1. -1. -1. -1. -1. -1. -1. -1. -1. -1. -1. -1. 1.30495906e+00 1.29771090e+00 1.26601040e+00 -1. -1. -1. -1. -1. -1. -1. 1.77944641e+01 8.20367932e-01 -1. -1. -1. 7.62447119e-01 7.70989060e-01 7.66750753e-01 8.10713410e-01 8.23071957e-01 8.63823652e-01 8.59614909e-01 -1. -1. -1. -1. -1. -1. -1. -1. -1. -1. -1. -1. -1. -1. -1. -1. -1. -1. -1. -1. -1. -1. -1. -1. -1. -1. -1. -1. -1. -1. -1. 8.22002590e-01 8.10698211e-01 8.19520712e-01 8.29689085e-01 8.29414785e-01 8.29337597e-01 8.31834733e-01 8.34048033e-01 8.43551517e-01 8.65913749e-01 8.96399736e-01 9.16181684e-01 9.01588738e-01 8.78516495e-01 9.82793093e-01 9.45921302e-01 9.33146477e-01 9.55344081e-01 9.27339554e-01 9.87100124e-01 9.93840158e-01 1.04572845e+00 1.02238190e+00 -1. -1. -1. -1. -1. -1. -1. -1.
    -1. -1. -1. -1. -1. -1. -1. -1. -1. -1. -1. -1. -1. -1. -1. -1. -1. -1. -1. 1.03012228e+00 1.00169444e+00 1.01761508e+00 9.94402826e-01 1.01733482e+00 1.01918328e+00 1.02970183e+00 1.02767515e+00 1.05814254e+00 1.05728400e+00 1.06459749e+00 1.06714582e+00 -1. -1. -1. -1. -1. -1. -1. -1. -1. -1. -1. -1. -1. -1. -1. -1. -1. -1. -1. -1. -1. 1.01628089e+00 1.01460958e+00 1.01773655e+00 1.01240861e+00 1.01039970e+00 1.01432526e+00 1.01237917e+00 1.00795317e+00 9.99314189e-01 1.00677323e+00 -1. 1.00711751e+00 9.89744842e-01 9.89343286e-01 9.98450994e-01 1.03869605e+00 1.03538835e+00 1.04536557e+00 1.05577767e+00 1.10766995e+00 1.10139084e+00 1.10463226e+00 1.10204005e+00 1.11984694e+00 1.12461483e+00 1.13256907e+00 1.14149797e+00 1.13466835e+00 1.14756489e+00 -1. -1. 1.13080835e+00 1.15719080e+00 1.16820920e+00 1.23853052e+00 1.22300792e+00 1.18308127e+00 -1. 1.18186533e+00 1.17053306e+00 1.17098773e+00 1.20028365e+00 1.19462669e+00 1.19640338e+00 1.18266463e+00 -1. -1. -1. -1. -1. -1. -1. -1. -1. -1. -1. 1.04882121e+00 1.05153918e+00 -1. -1. -1. -1. -1. -1. -1. -1. -1. -1. -1. -1. -1. -1. -1. -1. -1. 1.07187927e+00 1.08710098e+00 1.08754098e+00 1.06942093e+00 1.08035719e+00 1.08048248e+00 -1. -1. -1. -1. 9.68061268e-01 -1. 9.67801034e-01 9.54104304e-01 1.01760101e+00 1.01384163e+00 9.74993348e-01 1.00726891e+00 9.84525919e-01 1.01961088e+00 -1. -1. -1. -1. -1. -1. -1. -1. -1. -1. -1. -1. -1. -1. -1. 1.21668625e+00 -1. -1. -1. -1. -1. 1.10821068e+00 1.10328388e+00 1.09747374e+00 1.10619903e+00 1.11238635e+00 1.12098455e+00 1.12135470e+00 1.12325299e+00 1.06065238e+00 -1. 1.04505074e+00 1.10031724e+00 1.09324837e+00 1.07859349e+00 1.10020101e+00 1.10534632e+00 1.07816494e+00 1.08016777e+00 1.08429742e+00 1.09330201e+00 1.09149337e+00 1.13031626e+00 1.14365959e+00 1.12027073e+00 1.13084161e+00 1.14093375e+00 1.12497067e+00 1.11340582e+00 1.09845233e+00 1.12135637e+00 1.11976337e+00 1.10659409e+00 1.11286867e+00 1.11789072e+00 1.10905206e+00 1.09934962e+00 1.09779680e+00 1.10459661e+00 1.09643400e+00 1.11178660e+00 1.10206127e+00 1.09859180e+00 1.09296381e+00 1.11649728e+00 -1. -1. -1. -1. 1.09764540e+00 1.08770931e+00 1.10489345e+00 1.07816112e+00 -1. 1.10531747e+00 1.10517335e+00 1.11137462e+00 1.10913241e+00 1.10637367e+00 1.11423004e+00 1.09837699e+00 1.11280179e+00 1.11023760e+00 1.09632790e+00 -1. -1. -1. -1. -1. 1.01879668e+00 -1. -1. -1. -1. -1. -1. -1. 1.05288661e+00 1.04976499e+00 1.03770733e+00 1.00190198e+00 9.59014475e-01 -1. -1. 9.52216029e-01 9.49880362e-01 9.47413683e-01 9.43943322e-01 9.45717216e-01 9.40461397e-01 9.34815586e-01 -1. -1. -1. -1. -1. -1. -1. -1. -1. -1. -1. 1.02392840e+00 -1. -1. -1. -1. -1. -1. -1. -1. -1. -1. -1. -1. -1. -1. -1. -1. -1. -1. -1. -1. -1. 1.09246087e+00 1.12057924e+00 -1. -1. -1. -1. -1. -1. -1. -1. -1. -1. -1. -1. -1. -1. -1. -1. -1. -1. -1. -1. -1. -1. -1. 1.09114552e+00 1.08091903e+00 1.08114672e+00 1.09450924e+00 1.09696567e+00 1.09775889e+00 1.09528518e+00 1.09675860e+00 1.10032189e+00 -1. -1. -1. -1. 1.19429982e+00 1.18426764e+00 1.14755929e+00 1.06970310e+00 1.03438497e+00 1.03291833e+00 1.03805816e+00 1.03487122e+00 1.03194165e+00 1.03101552e+00 1.02826464e+00 1.03681421e+00 1.05089533e+00 9.25471485e-01 8.60699058e-01 8.48021209e-01 8.52226436e-01 8.56649458e-01 -1. -1. -1. -1. -1. -1. -1. -1. -1. -1. -1. -1. -1. -1. -1. -1. -1. -1. -1. -1. -1. -1. -1. -1. -1. -1. -1. -1. -1. -1. -1. 8.21434796e-01 7.83315897e-01 7.84315348e-01 7.79070199e-01 8.69547844e-01 8.65555286e-01 8.58972549e-01 -1. -1. -1. -1. -1. -1. -1. -1. -1. -1. -1. -1. -1. -1. -1. -1. -1. -1. -1. -1. -1. -1. -1. -1. -1. -1. -1. -1. -1. -1. 8.08564603e-01 8.32415223e-01 8.24616730e-01 8.26807201e-01 8.40501308e-01 8.31808805e-01 8.34030449e-01 8.39371145e-01 8.43045831e-01 8.20017636e-01 9.19315040e-01 8.99356544e-01 9.06308353e-01 9.08803105e-01 8.97738039e-01 9.40467596e-01 1.00437689e+00 9.97632384e-01 9.99294877e-01 1.00536203e+00 1.00378466e+00 1.00312960e+00 1.04626656e+00 -1. -1. -1. -1. -1. -1. -1. -1. -1.
    -1. -1. -1. -1. -1. -1. -1. -1. -1. -1. -1. -1. -1. -1. -1. 1.01596045e+00 1.01472330e+00 1.01099098e+00 1.01727438e+00 -1. 1.02724683e+00 1.07126021e+00 1.02380359e+00 1.02664554e+00 1.05546558e+00 1.04628658e+00 1.04262841e+00 1.07107222e+00 1.05493784e+00 1.07591915e+00 1.08538604e+00 -1. -1. -1. -1. -1. -1. -1. -1. -1. -1. -1. -1. -1. -2.02134457e+01 -1. -1. -1. -1. -1. -1. -1. 1.00697005e+00 1.01304650e+00 1.01335883e+00 1.01215434e+00 1.01714599e+00 1.01176596e+00 1.01274228e+00 1.01123011e+00 9.98445928e-01 9.97526586e-01 -1. 1.01365769e+00 1.00780928e+00 1.01762211e+00 1.01630080e+00 1.02050328e+00 1.04209924e+00 1.03540492e+00 1.05480802e+00 1.15137410e+00 1.14765739e+00 1.12748170e+00 1.15481889e+00 1.17145813e+00 1.14850152e+00 1.10927987e+00 1.12779617e+00 1.11845052e+00 1.13326156e+00 1.11782217e+00 -1. 1.20140803e+00 1.19361055e+00 1.19817698e+00 1.17388809e+00 -1. 1.12865543e+00 1.17168200e+00 1.13972032e+00 1.17190862e+00 1.18973219e+00 1.12537348e+00 1.11339307e+00 -1. -1. -1. -1. -1. 9.85112250e-01 1.00537479e+00 -1. -1. -1. -1. -1. -1. -1. -1. -1. -1. -1. -1. -1. -1. -1. -1. -1. -1. -1. -1. -1. -1. -1. -1. -1. 1.07952034e+00 1.08474755e+00 1.08066106e+00 1.05896533e+00 1.09956765e+00 1.08592224e+00 -1. -1. -1. -1. 9.73708868e-01 9.71891105e-01 9.75854456e-01 9.56358075e-01 9.93753612e-01 1.02417195e+00 9.90859091e-01 1.01719332e+00 9.77282166e-01 1.01602745e+00 -1. -1. -1. -1. -1. -1. -1. -1. -1. -1. -1. -1. -1. -1. -1. 1.20210958e+00 1.24217021e+00 1.25136292e+00 -1. -1. -1. 1.11342037e+00 1.09841704e+00 1.11493957e+00 1.11562955e+00 1.11720169e+00 1.12430847e+00 1.12462163e+00 1.12903988e+00 1.09018958e+00 1.06427813e+00 1.07934725e+00 1.08754349e+00 1.09538484e+00 1.10659635e+00 1.11100292e+00 1.10364866e+00 1.06701589e+00 1.07321310e+00 1.07705128e+00 1.06903362e+00 1.09972131e+00 1.10634387e+00 1.11363614e+00 1.13463819e+00 1.17634547e+00 1.15383554e+00 1.12745094e+00 1.10955787e+00 1.09626281e+00 1.12358618e+00 1.13217759e+00 1.12097931e+00 1.11619258e+00 1.11364830e+00 1.10817289e+00 1.07553542e+00 1.11839068e+00 1.03396916e+00 1.08498907e+00 1.06251085e+00 1.08262908e+00 1.08290470e+00 1.09229529e+00 1.08138216e+00 -1. -1. -1. -1. 1.10292172e+00 1.12283885e+00 1.08754766e+00 1.11829472e+00 -1. 1.10924947e+00 1.09545183e+00 1.09669793e+00 1.11730778e+00 1.10422015e+00 1.10322917e+00 1.10553455e+00 1.11108506e+00 1.10493481e+00 1.11147249e+00 1.10233438e+00 -1. -1. -1. 1.03507304e+00 -1. 1.01756728e+00 1.01627803e+00 9.83479857e-01 -1. -1. -1. -1. 1.03670824e+00 1.03660572e+00 1.05634534e+00 9.70400631e-01 9.67848241e-01 9.81191218e-01 9.58230436e-01 9.50519979e-01 9.55261290e-01 9.39968288e-01 9.84174907e-01 9.35376585e-01 1.02038670e+00 1.00287032e+00 -1. -1. -1. -1. 9.82836306e-01 9.92746890e-01 -1. 1.00766182e+00 -1. 1.01425588e+00 1.02331436e+00 1.02716231e+00 1.02912557e+00 1.05127287e+00 -1. -1. -1. -1. -1. -1. -1. -1. -1. -1. -1. -1. -1. -1. -1. -1. 1.07146168e+00 1.08230937e+00 1.09073079e+00 1.06800783e+00 1.10961318e+00 1.14838386e+00 1.11761606e+00 -1. -1. -1. -1. -1. -1. -1. -1. -1. -1. -1. -1. -1. -1. -1. -1. -1. -1. -1. -1. -1. 1.06910253e+00 1.07554913e+00 1.08960104e+00 1.09292614e+00 1.08228445e+00 1.09590423e+00 1.09416401e+00 1.09494686e+00 1.11770189e+00 -1. -1. -1. -1. 1.20168543e+00 -1. 1.21714199e+00 1.12312853e+00 -1. -1. -1. 1.01166606e+00 1.03035009e+00 1.02020931e+00 1.01829004e+00 1.03201139e+00 9.82719541e-01 8.46140325e-01 8.46359432e-01 8.55001867e-01 8.54561508e-01 8.60813260e-01 8.26932192e-01 8.41804445e-01 -1. -1. -1. -1. -1. -1. -1. -1. -1. -1. -1. -1. -1. -1. -1. -1. -1. -1. -1. -1. -1. -1. -1. -1. -1. -1. -1. -1. -1. 8.13933372e-01 7.93074608e-01 8.10752094e-01 8.16286504e-01 8.64134729e-01 8.64485204e-01 8.60157907e-01 8.52351725e-01 8.43970358e-01 -1. -1. -1. -1. -1. -1. -1. -1. -1. -1. -1. -1. -1. -1. -1. -1. -1. -1. -1. -1. -1. -1. -1. -1. -1. -1. -1. -1. 8.15105081e-01 8.37559044e-01 8.22642326e-01 8.28812122e-01 8.56457233e-01 8.33488464e-01 8.28997493e-01 8.46945763e-01 8.43028367e-01 8.48689497e-01 8.75434160e-01 8.63396108e-01 9.19946134e-01 9.12472427e-01 9.48745310e-01 9.50212479e-01 9.62097704e-01 9.55543697e-01 9.81612027e-01 9.75251138e-01 -1. -1. -1. 1.00413537e+00 1.00298142e+00 9.98991430e-01 1.00742126e+00 1.00544298e+00 -1. -1. -1. -1.
    -1. -1. -1. -1. -1. -1. -1. -1. -1. -1. -1. -1. -1. -1. -1. 1.02630448e+00 1.00850749e+00 1.00384033e+00 1.01865411e+00 -1. -1. 1.04912937e+00 1.06843436e+00 1.04783881e+00 1.05671775e+00 1.04827654e+00 1.04114330e+00 1.05704987e+00 1.05522466e+00 1.09927320e+00 1.07687628e+00 -1. -1. -1. -1. -1. -1. -1. -1. -1. -1. -1. -1. -1. -1. -1. -1. -1. -1. -1. -1. -1. 1.01378644e+00 1.01554120e+00 1.01868260e+00 1.01592898e+00 1.01821554e+00 1.01346099e+00 1.00823808e+00 9.83879626e-01 9.75308597e-01 9.91973639e-01 9.85687852e-01 1.01552856e+00 1.06483817e+00 1.04509354e+00 1.03381419e+00 1.03439593e+00 1.04965484e+00 1.05175626e+00 1.05746293e+00 1.03991187e+00 1.08976281e+00 -1. 1.18842626e+00 1.18514752e+00 1.15195584e+00 1.18589580e+00 1.11170006e+00 1.10038602e+00 1.14543879e+00 1.12548244e+00 -1. 1.13793838e+00 1.17837393e+00 1.13225663e+00 1.13198268e+00 -1. 1.12373960e+00 1.12197447e+00 1.11873162e+00 1.13861179e+00 1.09574866e+00 1.02796614e+00 1.01974714e+00 -1. -1. -1. -1. -1. -1. 9.90472734e-01 -1. -1. -1. -1. -1. -1. -1. -1. -1. -1. -1. -1. -1. -1. -1. -1. -1. -1. -1. -1. -1. -1. -1. -1. -1. -1. 1.07815671e+00 1.08034706e+00 1.09241295e+00 -1. -1. -1. -1. -1. -1. 9.76032376e-01 9.56364095e-01 9.86853600e-01 1.01773739e+00 9.94334102e-01 9.86059606e-01 9.85201299e-01 -1. -1. -1. 1.00444591e+00 -1. -1. -1. -1. -1. -1. -1. -1. -1. -1. -1. -1. -1. -1. 1.19861102e+00 1.21107697e+00 1.14607334e+00 -1. 1.13571560e+00 1.11662972e+00 1.11300194e+00 1.08952308e+00 1.09404552e+00 1.09416211e+00 1.09985852e+00 1.12653124e+00 1.12790549e+00 1.11978197e+00 1.05994713e+00 1.08357596e+00 1.05719519e+00 1.12335443e+00 1.12368846e+00 1.11467123e+00 1.12764740e+00 1.21083164e+00 1.11931002e+00 1.10537517e+00 1.10285032e+00 1.10719454e+00 1.12041688e+00 1.11767673e+00 1.12831855e+00 1.13786352e+00 1.12332976e+00 1.13907981e+00 1.13416541e+00 -1. 1.10520923e+00 1.10804570e+00 1.10819972e+00 1.10918868e+00 1.11715853e+00 1.11444771e+00 1.11934257e+00 1.12717628e+00 1.11601460e+00 1.09462333e+00 1.09421086e+00 1.09685993e+00 1.14727771e+00 1.10025144e+00 1.09238803e+00 1.09561515e+00 1.09280622e+00 1.05522394e+00 -1. 1.08958423e+00 1.11870480e+00 1.11444044e+00 1.12316298e+00 1.12461710e+00 1.10410011e+00 1.09869945e+00 1.09643459e+00 1.09335315e+00 1.09503043e+00 1.11159945e+00 1.09862363e+00 1.09141946e+00 1.11226928e+00 1.13182557e+00 1.12198174e+00 1.09461498e+00 1.08107817e+00 1.08109808e+00 1.05508661e+00 1.04044676e+00 1.00999570e+00 1.01479888e+00 1.02014959e+00 1.00562942e+00 9.80237544e-01 9.88109052e-01 9.96178627e-01 9.78885949e-01 1.01729536e+00 1.05551219e+00 9.93364453e-01 1.00549877e+00 1.09522867e+00 9.55433309e-01 9.48620856e-01 9.44126129e-01 9.53567982e-01 9.57113624e-01 9.81855512e-01 9.76278663e-01 9.75422263e-01 9.78911042e-01 9.91955876e-01 9.45976794e-01 9.72087741e-01 9.40418601e-01 1.01549745e+00 9.91900802e-01 1.01727974e+00 1.01448941e+00 -1. 1.01471508e+00 1.01143205e+00 1.02010155e+00 1.01568091e+00 1.02349997e+00 -1. -1. -1. -1. 1.04920113e+00 -1. -1. -1. -1. -1. -1. -1. -1. -1. -1. -1. -1. 1.08385217e+00 1.10189569e+00 1.14147365e+00 1.07485330e+00 1.13799632e+00 1.09485829e+00 1.09100127e+00 1.06382418e+00 1.05522692e+00 -1. -1. -1. -1. -1. -1. -1. -1. -1. -1. -1. -1. -1. -1. -1. -1. 1.10150683e+00 -1. 1.07337749e+00 1.09492695e+00 -1. 1.09610915e+00 1.09318972e+00 1.08760691e+00 1.10482287e+00 1.10925996e+00 1.11958814e+00 -1. -1. -1. -1. -1. -1. -1. -1. -1. -1. -1. 9.93277609e-01 1.02947235e+00 1.03452337e+00 1.03068900e+00 1.02929688e+00 -1. 8.98791015e-01 8.49135280e-01 8.60144854e-01 8.49161386e-01 8.56281161e-01 8.46801400e-01 -1. -1. -1. -1. -1. -1. -1. -1. -1. -1. -1. -1. -1. -1. -1. -1. -1. -1. -1. -1. -1. -1. -1. -1. -1. -1. -1. -1. -1. -1. 8.04816186e-01 8.11678469e-01 8.11204314e-01 8.06908727e-01 8.39659333e-01 8.73225808e-01 8.57045531e-01 8.41858327e-01 8.39402616e-01 8.51988494e-01 -1. -1. -1. -1. -1. -1. -1. -1. -1. -1. -1. -1. -1. -1. -1. -1. -1. -1. -1. -1. -1. -1. -1. -1. -1. -1. -1. 8.22553039e-01 8.24798048e-01 8.26303363e-01 8.23549747e-01 8.17979574e-01 8.24154735e-01 8.43064249e-01 8.49231958e-01 8.49073827e-01 8.42689574e-01 8.71116757e-01 9.16309476e-01 9.20109987e-01 9.02955055e-01 9.59271073e-01 9.56318438e-01 9.79855776e-01 9.92582798e-01 9.94617522e-01 9.91362393e-01 -1. 1.01747942e+00 1.03268754e+00 1.00079250e+00 9.96793687e-01 1.00012493e+00 1.00410163e+00 -1. -1. -1. -1. -1.
    -1. -1. -1. -1. -1. -1. -1. -1. -1. -1. -1. -1. -1. -1. 1.00553489e+00 9.96280372e-01 9.98170614e-01 1.00492001e+00 1.00884211e+00 -1. -1. 1.01555252e+00 1.05136526e+00 1.05856764e+00 1.05420220e+00 1.02265561e+00 1.03782940e+00 1.03224039e+00 1.04458702e+00 1.04889011e+00 1.06336355e+00 1.07616079e+00 -1. -1. -1. -1. -1. -1. -1. -1. -1. -1. -1. -1. -1. -1. -1. -1. -1. -1. -1. -1. 1.01921141e+00 1.01785767e+00 1.02401996e+00 1.01538944e+00 1.02055097e+00 1.01387239e+00 1.01117742e+00 9.97816205e-01 9.76617157e-01 9.98947799e-01 1.00006342e+00 1.02118921e+00 1.02070785e+00 1.04914069e+00 1.03436577e+00 1.04851210e+00 1.02479959e+00 1.02808630e+00 1.02939475e+00 1.04869688e+00 1.06283855e+00 -1. 1.19600701e+00 1.15679395e+00 1.11237860e+00 1.11249352e+00 1.10578036e+00 1.09950614e+00 1.13962269e+00 1.09507048e+00 -1. 1.07455552e+00 1.17705822e+00 1.13577950e+00 1.07393146e+00 -1. 1.12237024e+00 1.12378561e+00 1.12506497e+00 1.11491621e+00 1.04260349e+00 9.96322870e-01 9.77470160e-01 -1. -1. -1. -1. -1. 9.95909214e-01 1.00050104e+00 -1. -1. -1. -1. -1. -1. -1. -1. -1. -1. -1. -1. -1. -1. -1. -1. -1. -1. -1. -1. -1. -1. -1. -1. -1. -1. -1. -1. 1.08425605e+00 1.08369744e+00 -1. -1. -1. -1. -1. -1. 1.01389098e+00 -1. 9.98121321e-01 9.96210456e-01 1.04744291e+00 1.00116396e+00 -1. -1. -1. -1. -1. -1. -1. -1. -1. -1. -1. -1. -1. -1. -1. -1. 1.20123029e+00 1.20822740e+00 1.19254506e+00 1.17330015e+00 1.15938842e+00 1.15108061e+00 1.15056694e+00 1.10101783e+00 1.13649786e+00 1.12383294e+00 1.09006476e+00 1.10718203e+00 1.09657288e+00 1.12654912e+00 1.13865077e+00 1.10874450e+00 1.06657040e+00 1.11735988e+00 1.11191845e+00 1.11268568e+00 1.12575519e+00 1.12187827e+00 1.13496125e+00 1.12213004e+00 1.14447832e+00 -1. 1.14094734e+00 1.14043796e+00 1.12436545e+00 1.12457395e+00 1.12778866e+00 1.12391353e+00 1.13238394e+00 1.10575390e+00 1.10078561e+00 -1. 1.10626936e+00 1.11419141e+00 1.06324053e+00 1.11054349e+00 1.12616575e+00 1.17452860e+00 1.14510798e+00 1.05450559e+00 1.06698334e+00 1.13629329e+00 1.09642899e+00 1.09600580e+00 1.10270262e+00 1.10159576e+00 1.09257054e+00 1.11086965e+00 1.11186802e+00 1.06097615e+00 1.10304928e+00 1.07905948e+00 1.10018516e+00 1.10216022e+00 1.08337259e+00 1.10771537e+00 1.11235929e+00 1.10189247e+00 1.09555948e+00 1.08841062e+00 1.08086669e+00 1.08315158e+00 1.09217000e+00 1.08323371e+00 1.11947286e+00 1.16058969e+00 1.16353238e+00 1.06324804e+00 -1. 1.03402197e+00 1.04894352e+00 1.03501368e+00 1.06803679e+00 1.04248190e+00 1.03190899e+00 1.02078199e+00 9.95445848e-01 9.59650159e-01 9.86171186e-01 1.01933682e+00 1.03616214e+00 1.03812170e+00 1.06682575e+00 1.04153228e+00 1.02570689e+00 9.38059688e-01 9.28062141e-01 1.04032886e+00 9.50736523e-01 1.02195859e+00 9.87083793e-01 9.88686919e-01 9.83241916e-01 9.67725098e-01 9.71498847e-01 9.65628743e-01 9.67261612e-01 9.62256193e-01 9.79957283e-01 9.50235307e-01 1.00089025e+00 1.00806284e+00 1.00947464e+00 1.00931203e+00 9.88302529e-01 1.04714441e+00 9.67532098e-01 9.90660965e-01 1.02270579e+00 9.98334825e-01 9.74283457e-01 1.00433946e+00 1.02887583e+00 1.03545153e+00 -1. -1. -1. 1.05366468e+00 1.10942626e+00 1.07184374e+00 1.06810880e+00 1.09087574e+00 1.10180628e+00 1.05365598e+00 1.07812440e+00 1.07154250e+00 1.09699738e+00 1.11683702e+00 1.13468850e+00 1.13382733e+00 1.12697589e+00 1.08007836e+00 1.05598760e+00 1.05022848e+00 1.04817379e+00 -1. -1. -1. -1. -1. -1. -1. -1. -1. -1. -1. -1. -1. -1. -1. 1.11237657e+00 1.12698221e+00 1.12385535e+00 1.12801182e+00 -1. 1.08930898e+00 1.08806694e+00 1.09494710e+00 1.09521365e+00 1.11111403e+00 1.10477793e+00 -1. -1. -1. -1. -1. -1. -1. -1. -1. -1. 1.02401042e+00 1.03166044e+00 1.02796376e+00 1.03394711e+00 1.03742659e+00 1.03773451e+00 -1. 9.01367664e-01 8.66133332e-01 8.95117760e-01 8.39675188e-01 8.53511333e-01 -1. 8.49178076e-01 -1. -1. -1. -1. -1. -1. -1. -1. -1. -1. -1. -1. -1. -1. -1. -1. -1. -1. -1. -1. -1. -1. -1. -1. -1. -1. -1. -1. -1. 8.05879354e-01 8.04488242e-01 8.08407366e-01 8.05379868e-01 8.33722651e-01 8.79626930e-01 8.59263062e-01 8.40393424e-01 8.44523013e-01 8.48096371e-01 -1. -1. -1. -1. -1. -1. -1. -1. -1. -1. -1. -1. -1. -1. -1. -1. -1. -1. -1. -1. -1. -1. -1. -1. -1. -1. -1. 8.15444887e-01 8.23242307e-01 8.15652013e-01 8.13300014e-01 8.13969135e-01 8.20740640e-01 8.15250993e-01 8.14263999e-01 8.43694687e-01 8.30223322e-01 8.64764988e-01 8.91724169e-01 9.16081607e-01 8.97936583e-01 9.23799038e-01 9.59497988e-01 1.00098383e+00 9.94887292e-01 9.89724755e-01 1.00600183e+00 -1. 1.02119768e+00 1.01085973e+00 1.01065600e+00 9.98346686e-01 9.95806217e-01 1.00407112e+00 1.00112092e+00 1.00280201e+00 1.00065255e+00 9.94578958e-01 -1.
    -1. -1. -1. -1. -1. -1. -1. -1. -1. -1. -1. -1. -1. -1. 9.87211406e-01 9.80623007e-01 9.95986879e-01 1.01027024e+00 1.00797057e+00 1.00160456e+00 -1. -1. 1.03139210e+00 1.03333008e+00 1.03390145e+00 1.03281832e+00 1.02689600e+00 1.03097129e+00 1.05343509e+00 1.04200494e+00 1.07162786e+00 1.07470310e+00 -1. -1. -1. -1. -1. -1. -1. -1. -1. -1. -1. -1. -1. -1. -1. -1. -1. -1. -1. -1. 1.03357279e+00 1.00609028e+00 1.02090108e+00 1.01787758e+00 1.02033019e+00 1.01405764e+00 1.01450980e+00 1.01266325e+00 1.00508380e+00 9.90954578e-01 9.85630214e-01 1.00512278e+00 9.87153471e-01 1.01172364e+00 1.02480853e+00 1.04075515e+00 1.04728198e+00 1.05708814e+00 1.02734292e+00 1.03084624e+00 1.03351653e+00 -1. -1. -1. -1. -1. 1.12753737e+00 1.12395585e+00 1.18015051e+00 1.10199916e+00 1.12595499e+00 1.12441933e+00 1.18092060e+00 1.12289155e+00 1.09655261e+00 1.10009956e+00 1.12375128e+00 1.14268839e+00 1.13180828e+00 -1. 9.37641740e-01 9.87404227e-01 9.94368374e-01 9.96211767e-01 -1. -1. -1. -1. -1. -1. -1. -1. -1. -1. -1. -1. -1. -1. -1. -1. -1. -1. -1. -1. -1. -1. -1. -1. -1. -1. -1. -1. -1. -1. -1. -1. -1. -1. -1. -1. -1. -1. -1. -1. -1. -1. -1. 9.89195347e-01 1.00271523e+00 9.87040937e-01 1.04198754e+00 9.92800951e-01 1.00726414e+00 -1. -1. -1. -1. -1. -1. -1. -1. -1. -1. -1. -1. -1. -1. -1. 1.20308781e+00 1.20570087e+00 1.20607138e+00 1.17144680e+00 1.15875947e+00 1.13149047e+00 1.12730753e+00 1.13026094e+00 1.10452926e+00 1.11190391e+00 1.11954439e+00 1.11216092e+00 1.11605823e+00 1.07505774e+00 1.16815770e+00 1.05296707e+00 1.09372234e+00 1.09832668e+00 1.10257757e+00 1.11541474e+00 1.12524974e+00 1.12816167e+00 1.09019613e+00 1.18474507e+00 1.14094865e+00 1.13088107e+00 1.13562763e+00 1.12329316e+00 1.12833667e+00 1.13431525e+00 1.12565982e+00 1.13560140e+00 1.11648333e+00 1.10589004e+00 1.09541070e+00 1.09791911e+00 1.09764385e+00 1.11597824e+00 1.09877276e+00 -1. -1. 1.16580451e+00 1.16779876e+00 1.15759575e+00 1.11599231e+00 1.10402703e+00 1.10114908e+00 1.10215104e+00 1.10425913e+00 1.11314857e+00 1.09692657e+00 1.10574245e+00 1.11056840e+00 1.11107624e+00 1.10521245e+00 1.08902693e+00 1.09196544e+00 1.11152446e+00 1.10327971e+00 1.10940814e+00 1.09630036e+00 1.10177660e+00 1.07822037e+00 1.09783447e+00 1.11056411e+00 1.09751904e+00 1.09643996e+00 1.10367095e+00 1.13874269e+00 1.13451946e+00 1.14980280e+00 1.06926703e+00 1.07288814e+00 1.04944289e+00 1.03648877e+00 1.08765960e+00 1.06891215e+00 1.07178688e+00 1.02753258e+00 1.03441644e+00 1.06369221e+00 1.03379488e+00 1.02045286e+00 1.01887918e+00 1.01530123e+00 1.01952791e+00 1.02763402e+00 1.02884197e+00 1.02428448e+00 9.91941690e-01 9.36104774e-01 1.02955186e+00 9.89718437e-01 1.00012064e+00 1.00237644e+00 1.02696097e+00 9.86920834e-01 9.89134014e-01 9.52760458e-01 9.67976451e-01 9.67915177e-01 9.88947153e-01 9.90092576e-01 1.00027263e+00 9.95172679e-01 1.00416005e+00 1.00774848e+00 1.01064706e+00 1.00154710e+00 1.04635394e+00 1.02289271e+00 9.59519088e-01 9.66261983e-01 9.83561814e-01 9.66789126e-01 1.01155257e+00 1.04257190e+00 1.03823459e+00 1.03006196e+00 1.00903594e+00 9.95225787e-01 1.02770662e+00 1.08493638e+00 1.06905687e+00 1.02935600e+00 1.06535673e+00 1.02367175e+00 1.07569051e+00 1.09559190e+00 1.09672511e+00 1.09743679e+00 1.13044739e+00 1.11030316e+00 1.15586007e+00 1.06065428e+00 1.05775964e+00 1.06308877e+00 1.07342207e+00 1.10046458e+00 -1. -1. -1. -1. -1. -1. -1. -1. -1. -1. -1. -1. -1. -1. -1. -1. -1. 1.12451887e+00 1.13785481e+00 -1. 1.09669411e+00 1.09014821e+00 1.09565926e+00 1.09552920e+00 1.08928156e+00 -1. -1. -1. -1. -1. -1. -1. -1. -1. -1. -1. 1.02595210e+00 1.03759134e+00 1.03867042e+00 1.04996610e+00 1.05368853e+00 1.07446969e+00 -1. 8.94279301e-01 8.67528379e-01 8.84213924e-01 8.51321340e-01 -1. -1. -1. -1. -1. -1. -1. -1. -1. -1. -1. -1. -1. -1. -1. -1. -1. -1. -1. -1. -1. -1. -1. -1. -1. -1. -1. -1. -1. -1. -1. -1. -1. 8.08859289e-01 8.00509572e-01 8.06013882e-01 8.23670208e-01 8.73468697e-01 8.54585230e-01 8.41277122e-01 8.48978758e-01 8.54579449e-01 -1. -1. -1. -1. -1. -1. -1. -1. -1. -1. -1. -1. -1. -1. -1. -1. -1. -1. -1. -1. -1. -1. -1. -1. -1. -1. -1. 8.49254072e-01 8.20523977e-01 8.22708130e-01 8.13702762e-01 8.12471151e-01 8.11569631e-01 8.10675144e-01 8.16325247e-01 8.01813483e-01 8.41408253e-01 9.07681286e-01 8.80221188e-01 9.00828421e-01 8.89183164e-01 8.86667430e-01 9.55965936e-01 1.00208700e+00 1.01527882e+00 1.02067888e+00 1.04257584e+00 -1. 1.04535735e+00 1.05355501e+00 1.02891505e+00 1.02163041e+00 1.00368273e+00 1.00407767e+00 1.00759864e+00 1.00817823e+00 -1. -1. -1.
    -1. -1. -1. -1. -1. -1. -1. -1. -1. -1. -1. -1. -1. -1. 9.92904603e-01 9.94005799e-01 9.96151745e-01 9.95071292e-01 9.79782522e-01 9.91840839e-01 -1. -1. -1. 1.03010952e+00 1.03526509e+00 1.02333307e+00 1.02638698e+00 1.03983366e+00 1.02563620e+00 1.08170378e+00 1.09644306e+00 1.08398783e+00 -1. -1. -1. -1. -1. -1. -1. -1. -1. -1. -1. -1. -1. -1. -1. -1. -1. -1. -1. -1. 1.01816511e+00 1.02659214e+00 1.01424968e+00 1.01329458e+00 1.01197958e+00 1.00833118e+00 1.01123798e+00 1.01449478e+00 1.01201057e+00 1.01998913e+00 9.94663954e-01 9.95359719e-01 1.00430632e+00 1.03125656e+00 1.02655351e+00 1.03618360e+00 1.04619515e+00 1.00366068e+00 1.03972018e+00 1.03978705e+00 1.04855502e+00 -1. -1. -1. -1. -1. -1. -1. -1. 1.09538949e+00 1.07526386e+00 1.12060571e+00 1.09461987e+00 1.11374295e+00 1.12718248e+00 1.12689948e+00 1.14008212e+00 -1. -1. -1. 9.91777182e-01 1.00208771e+00 1.00141156e+00 9.83959377e-01 9.76684570e-01 -1. -1. -1. -1. -1. -1. -1. -1. -1. -1. -1. -1. -1. -1. -1. -1. -1. -1. -1. -1. -1. -1. -1. -1. -1. -1. -1. -1. -1. -1. -1. -1. -1. -1. -1. -1. -1. -1. -1. -1. -1. -1. 1.00099421e+00 1.01438725e+00 1.03268075e+00 1.02891934e+00 1.01587784e+00 1.01407778e+00 -1. -1. -1. -1. -1. -1. -1. -1. -1. -1. -1. -1. -1. -1. 1.19553876e+00 -1. -1. 1.18442976e+00 1.17822587e+00 1.16054702e+00 1.15224242e+00 1.16406000e+00 1.12715387e+00 1.10719788e+00 1.11284804e+00 1.11617732e+00 1.11145425e+00 1.10746634e+00 1.11106253e+00 1.15233934e+00 1.16270196e+00 1.06065595e+00 1.11992991e+00 1.09178734e+00 1.10491836e+00 1.12212193e+00 1.14562929e+00 1.14302111e+00 1.15498424e+00 1.12803698e+00 1.13514972e+00 1.13328445e+00 1.12035096e+00 1.13884735e+00 1.11552429e+00 1.10466504e+00 1.10847044e+00 -1. -1. 1.08924937e+00 1.09962630e+00 1.10595810e+00 -1. -1. -1. -1. -1. 1.16807890e+00 1.12450469e+00 1.05363834e+00 -1. 1.10025942e+00 1.07486331e+00 1.09700131e+00 1.10032892e+00 1.10645151e+00 1.10059035e+00 1.09934449e+00 1.09713507e+00 1.09789002e+00 1.09799421e+00 1.10484123e+00 1.10639083e+00 1.11796081e+00 1.10314679e+00 1.10819054e+00 1.09400892e+00 1.11526406e+00 1.11483419e+00 1.10274720e+00 1.09276903e+00 1.09200478e+00 1.08934271e+00 1.12837946e+00 1.12566698e+00 1.12623441e+00 -1. -1. 1.05390728e+00 1.05602074e+00 1.06375301e+00 1.05598688e+00 1.11403143e+00 1.05188119e+00 1.02859223e+00 1.04809439e+00 1.06059289e+00 1.04780960e+00 1.03285456e+00 1.02582967e+00 1.01815295e+00 1.01688540e+00 1.02218652e+00 1.01661086e+00 1.02196574e+00 9.94433820e-01 1.00062394e+00 1.00227845e+00 9.95901525e-01 1.01902997e+00 1.01615930e+00 9.48497236e-01 9.87649024e-01 9.79237556e-01 9.68857646e-01 9.51567590e-01 9.78817940e-01 9.89078581e-01 9.80894387e-01 9.98773277e-01 9.95662868e-01 1.01405180e+00 1.02101362e+00 1.04145956e+00 1.07003832e+00 1.06185782e+00 9.98230875e-01 9.55918372e-01 9.89460528e-01 1.00064743e+00 1.03811371e+00 1.03185248e+00 1.02412283e+00 1.00400865e+00 1.00685894e+00 1.00187373e+00 9.92696404e-01 1.00706589e+00 1.06901419e+00 1.09230876e+00 1.09579527e+00 1.09847200e+00 1.11439323e+00 1.08303308e+00 1.09361482e+00 1.08611524e+00 1.08899200e+00 1.08900142e+00 1.07630849e+00 1.00497413e+00 1.03106546e+00 9.88799810e-01 9.58964705e-01 1.04031682e+00 -1. -1. 9.74926531e-01 9.74907458e-01 9.82659221e-01 9.92868960e-01 -1. -1. -1. -1. -1. -1. -1. -1. -1. -1. -1. -1. 1.11761296e+00 1.10470963e+00 1.10143983e+00 1.09537888e+00 1.09476483e+00 1.09873021e+00 1.09109294e+00 -1. -1. -1. -1. -1. -1. -1. -1. -1. -1. -1. 1.05134821e+00 1.05087245e+00 1.04546010e+00 1.04458749e+00 1.06218266e+00 1.06889951e+00 -1. 8.49024415e-01 8.63258004e-01 8.64779532e-01 8.56336772e-01 8.36837649e-01 8.36937845e-01 8.28877330e-01 -1. -1. -1. -1. -1. -1. -1. -1. -1. -1. -1. -1. -1. -1. -1. -1. -1. -1. -1. -1. -1. -1. -1. -1. -1. -1. -1. -1. -1. -1. 8.09817731e-01 8.05907011e-01 7.95078754e-01 7.93256760e-01 8.37423384e-01 8.27359736e-01 8.48255992e-01 8.33277285e-01 8.52779090e-01 -1. -1. -1. -1. -1. -1. -1. -1. -1. -1. -1. -1. -1. -1. -1. -1. -1. -1. -1. -1. -1. -1. -1. -1. -1. -1. -1. 8.20156634e-01 8.41994882e-01 8.40739071e-01 8.55853260e-01 8.58360171e-01 8.24727535e-01 8.08588386e-01 8.09546709e-01 7.98433244e-01 8.30490768e-01 8.87049377e-01 8.42153549e-01 8.55318785e-01 8.79796505e-01 -1. -1. 9.92905319e-01 9.84541774e-01 9.98915434e-01 1.02613211e+00 1.01511276e+00 1.03490233e+00 1.04406857e+00 1.04746950e+00 1.01187778e+00 1.00460267e+00 9.77724671e-01 9.80464339e-01 9.62217927e-01 -1. -1. -1.
    -1. -1. -1. -1. -1. -1. -1. -1. -1. -1. -1. -1. -1. -1. -1. 9.96379912e-01 9.95017588e-01 9.84725893e-01 9.81314719e-01 9.87098396e-01 -1. -1. -1. 1.04565179e+00 1.04532588e+00 1.03093791e+00 1.05423820e+00 1.07059848e+00 1.08942640e+00 1.10119939e+00 1.10526252e+00 -1. -1. -1. -1. -1. -1. -1. -1. -1. -1. -1. -1. -1. -1. -1. -1. -1. -1. -1. -1. -1. -1. 9.98180866e-01 9.96275783e-01 1.00392950e+00 1.01414049e+00 1.00673163e+00 1.00597715e+00 1.01574016e+00 1.01514208e+00 -1. 1.02216852e+00 1.03457308e+00 1.03523970e+00 1.06111729e+00 1.07245469e+00 1.00798535e+00 1.06822419e+00 1.08548450e+00 1.02414751e+00 1.05237925e+00 -1. -1. -1. -1. -1. 1.07386470e+00 1.07726920e+00 1.16718936e+00 -1. 1.17771363e+00 1.18538260e+00 1.18743575e+00 1.05131066e+00 1.06359184e+00 1.05330694e+00 1.23487365e+00 -1. 1.09415913e+00 -1. -1. -1. 9.78013456e-01 9.42643821e-01 9.78987157e-01 9.82422829e-01 -1. -1. -1. -1. -1. -1. -1. -1. -1. -1. -1. -1. -1. -1. -1. -1. -1. -1. -1. -1. -1. -1. -1. -1. -1. -1. -1. -1. -1. -1. -1. -1. -1. -1. -1. -1. -1. -1. -1. -1. -1. -1. -1. 1.02016425e+00 1.02637327e+00 1.02225840e+00 -1. 1.01491308e+00 -1. -1. -1. -1. -1. -1. -1. -1. -1. -1. -1. -1. -1. -1. -1. -1. 1.16201353e+00 1.17199790e+00 -1. -1. -1. -1. 1.11109984e+00 1.06656182e+00 1.10339963e+00 1.11657870e+00 1.11647081e+00 1.11893237e+00 1.12790644e+00 1.04732835e+00 1.10165763e+00 1.11486769e+00 1.08931625e+00 1.05511892e+00 1.09543777e+00 1.10877454e+00 1.12497544e+00 1.10616839e+00 1.14557624e+00 1.12455869e+00 1.12320423e+00 1.12555385e+00 1.07830787e+00 1.09523106e+00 1.09022593e+00 1.06737733e+00 -1. 1.07710600e+00 1.11434245e+00 1.09527588e+00 1.07681465e+00 1.10247457e+00 -1. -1. -1. -1. 1.15566206e+00 1.13152790e+00 1.11576962e+00 1.14015830e+00 1.09340239e+00 1.11555970e+00 1.11168754e+00 1.10183382e+00 1.10570300e+00 1.10622084e+00 1.10665154e+00 1.11085367e+00 1.10000443e+00 1.09774113e+00 1.10821950e+00 1.12108004e+00 1.12301111e+00 1.11925137e+00 1.13119328e+00 1.13457859e+00 1.12392914e+00 1.11770618e+00 1.08645141e+00 1.08376920e+00 1.09098136e+00 1.08991134e+00 1.10235786e+00 -1. -1. -1. -1. -1. -1. -1. 1.06853664e+00 1.01910830e+00 1.07839620e+00 1.05185616e+00 -1. 1.02522480e+00 9.95394647e-01 1.01143658e+00 9.98094857e-01 1.00264513e+00 1.00774348e+00 1.00876367e+00 1.01947892e+00 1.01995814e+00 1.01122034e+00 9.94553089e-01 1.02327716e+00 1.00574327e+00 1.01095259e+00 1.00660872e+00 1.00699067e+00 1.00902081e+00 1.01305985e+00 9.99960780e-01 9.74532247e-01 9.80416715e-01 9.83649492e-01 9.90202546e-01 9.73951459e-01 1.00352573e+00 9.97635841e-01 1.00583470e+00 9.67785537e-01 1.07886481e+00 1.03001118e+00 1.07222319e+00 1.01368451e+00 1.00265706e+00 1.02615452e+00 1.01158094e+00 1.01560783e+00 1.01314533e+00 1.01759207e+00 1.02785301e+00 1.00580978e+00 9.79565382e-01 1.00716555e+00 1.01393402e+00 1.03576958e+00 1.01756644e+00 1.03610849e+00 1.04143286e+00 1.05795991e+00 1.06485093e+00 1.06819868e+00 1.08875585e+00 1.06131911e+00 1.04840195e+00 1.03661132e+00 1.02267623e+00 1.03621364e+00 1.03994691e+00 1.00235558e+00 9.63640571e-01 9.67258990e-01 9.73645926e-01 9.70062971e-01 9.62229192e-01 9.80343342e-01 9.84111667e-01 9.87269640e-01 -1. -1. -1. -1. 1.01183236e+00 1.02001369e+00 1.02818823e+00 1.10078120e+00 1.16636229e+00 -1. 1.12591863e+00 1.10837400e+00 1.10042119e+00 1.09743154e+00 1.09584808e+00 1.09141743e+00 1.09656107e+00 1.09399402e+00 1.08669603e+00 1.08257377e+00 -1. -1. -1. -1. -1. -1. -1. -1. -1. 1.04398751e+00 1.05357182e+00 1.05407536e+00 1.04650998e+00 1.05213726e+00 -1. -1. -1. 8.43041360e-01 8.60875249e-01 8.69073331e-01 8.39718342e-01 8.33552182e-01 8.20786119e-01 8.27429473e-01 -1. -1. -1. -1. -1. -1. -1. -1. -1. -1. -1. -1. -1. -1. -1. -1. -1. -1. -1. -1. -1. -1. -1. -1. 7.79808640e-01 -1. 7.94310272e-01 8.02871764e-01 8.06560099e-01 8.01970005e-01 7.97464550e-01 7.60108829e-01 8.08563650e-01 8.40126514e-01 8.49906683e-01 8.44894171e-01 8.41527760e-01 8.42865169e-01 8.57959688e-01 8.77243102e-01 8.69976401e-01 -1. -1. -1. -1. -1. -1. -1. -1. -1. -1. -1. -1. -1. -1. -1. -1. -1. -1. -1. -1. -1. -1. -1. -1. -1. 8.18893254e-01 8.35415363e-01 8.52079630e-01 8.51445317e-01 8.30408752e-01 8.07865024e-01 7.99608588e-01 8.48685265e-01 8.52523625e-01 8.72788191e-01 -1. -1. -1. -1. -1. 9.69736099e-01 9.76097465e-01 9.80176568e-01 9.85933602e-01 9.86918628e-01 9.94487107e-01 9.98312473e-01 9.89095986e-01 9.04635906e-01 1.05709529e+00 9.90698159e-01 9.58792746e-01 9.43780422e-01 -1. -1. -1.
    -1. -1. -1. -1. -1. -1. -1. -1. -1. -1. -1. -1. -1. -1. -1. 1.00956070e+00 1.02485406e+00 1.01021707e+00 1.01684344e+00 1.00476718e+00 -1. -1. -1. 1.04306412e+00 1.04534888e+00 1.03684437e+00 1.04907179e+00 1.07884681e+00 1.07365668e+00 1.09027624e+00 1.10195863e+00 -1. -1. -1. -1. -1. -1. -1. -1. -1. -1. -1. -1. -1. -1. -1. -1. -1. -1. -1. -1. -1. -1. 1.00719404e+00 1.00779700e+00 1.01717019e+00 1.01461327e+00 1.01638997e+00 1.01587355e+00 1.01564002e+00 1.02099299e+00 1.01033092e+00 1.03910506e+00 9.98600185e-01 1.07358217e+00 1.00609863e+00 9.86703873e-01 1.02452147e+00 9.87907827e-01 -1. -1. 1.07776976e+00 1.07106888e+00 1.07893336e+00 -1. -1. -1. -1. 1.08359897e+00 1.09704971e+00 1.10349762e+00 1.10089684e+00 1.03734851e+00 1.18381417e+00 1.17536938e+00 1.13433921e+00 1.14726067e+00 1.24774516e+00 1.04270566e+00 1.03777957e+00 9.79467928e-01 -1. -1. 9.85934079e-01 9.69761074e-01 9.98505831e-01 9.93627191e-01 -1. 1.01807678e+00 -1. 1.03220642e+00 1.02075851e+00 -1. -1. -1. -1. -1. -1. -1. -1. -1. -1. -1. -1. -1. -1. -1. -1. -1. -1. -1. -1. -1. -1. -1. -1. -1. -1. -1. -1. -1. -1. -1. -1. -1. -1. -1. -1. -1. -1. -1. -1. -1. -1. -1. -1. -1. -1. -1. -1. -1. -1. -1. -1. -1. -1. -1. -1. -1. -1. -1. -1. -1. -1. -1. -1. -1. 1.09961653e+00 1.08170056e+00 1.10671377e+00 1.09740376e+00 1.10336995e+00 1.10844660e+00 1.12326443e+00 1.09058285e+00 1.07578504e+00 1.08397508e+00 1.07297134e+00 1.07180285e+00 1.09106779e+00 1.10210204e+00 1.11015725e+00 1.10519707e+00 1.10909069e+00 1.11198676e+00 1.10982549e+00 1.11218333e+00 1.10668695e+00 1.06135118e+00 1.08086586e+00 1.11413944e+00 1.09543550e+00 1.08736253e+00 1.10412002e+00 1.09045029e+00 1.08486831e+00 1.06675589e+00 1.08695292e+00 1.04880536e+00 1.08100426e+00 1.10766816e+00 1.11892545e+00 1.11504400e+00 1.11008954e+00 1.10685670e+00 1.09323835e+00 1.11850977e+00 1.11597812e+00 1.11647129e+00 1.11232388e+00 1.10466397e+00 1.11001718e+00 1.10655117e+00 1.12587750e+00 1.12043715e+00 1.12059224e+00 1.11177921e+00 1.10110378e+00 1.11898279e+00 1.11884296e+00 1.08190286e+00 1.10106361e+00 1.09936619e+00 1.08571148e+00 1.09160864e+00 1.09455657e+00 1.10925686e+00 1.11830091e+00 -1. -1. -1. -1. -1. -1. -1. 1.08977544e+00 1.09158289e+00 1.05163133e+00 1.02452350e+00 1.02431667e+00 1.00640965e+00 1.02042484e+00 1.00949824e+00 1.01263833e+00 9.96690035e-01 1.00359976e+00 1.00014532e+00 1.00064123e+00 1.01391029e+00 9.98785675e-01 -1. -1. -1. 1.01418686e+00 9.69912350e-01 1.00644362e+00 1.00293541e+00 -1. -1. 9.88692880e-01 9.96009827e-01 9.78618383e-01 9.87970293e-01 1.01291931e+00 9.59761143e-01 9.95185673e-01 1.01848829e+00 1.02061737e+00 1.01720822e+00 9.74736512e-01 9.60205317e-01 1.01189673e+00 1.02311563e+00 1.01378655e+00 1.01626825e+00 1.00872743e+00 9.76037621e-01 1.00854719e+00 1.02677190e+00 1.00018394e+00 1.00298071e+00 1.02394807e+00 1.01264441e+00 1.02264369e+00 1.04742110e+00 1.02984262e+00 1.04753685e+00 1.01792729e+00 1.04385281e+00 1.03487682e+00 1.03818512e+00 9.90759611e-01 1.02044713e+00 1.01596487e+00 9.90692079e-01 1.00659764e+00 9.99457181e-01 1.00181592e+00 9.96881247e-01 1.00424087e+00 9.90019202e-01 9.91941094e-01 9.89689946e-01 9.85059023e-01 9.78955984e-01 -1. -1. -1. -1. 1.04760325e+00 1.00429153e+00 1.01632285e+00 1.03601635e+00 1.11870170e+00 1.16998065e+00 1.13009143e+00 1.11654735e+00 1.09881353e+00 1.09398639e+00 1.10148180e+00 1.09280789e+00 1.08563912e+00 1.08558702e+00 1.07859218e+00 1.08698511e+00 1.06807601e+00 -1. -1. -1. -1. -1. -1. -1. -1. -1. 1.05268645e+00 1.04150820e+00 1.05598187e+00 1.04309654e+00 1.04592061e+00 -1. -1. -1. 8.59444261e-01 8.61194432e-01 8.65083933e-01 8.52822959e-01 8.18295181e-01 8.14947069e-01 8.22436929e-01 8.24875534e-01 -1. -1. -1. -1. -1. -1. -1. -1. -1. -1. -1. -1. -1. -1. -1. -1. -1. -1. -1. -1. -1. -1. -1. -1. -1. 7.92646945e-01 8.01956058e-01 8.03143799e-01 8.00296843e-01 7.59112597e-01 7.93941200e-01 8.29084754e-01 8.53057563e-01 8.83590519e-01 8.57206106e-01 8.90040338e-01 8.57908785e-01 8.44115496e-01 8.71751249e-01 8.62178266e-01 -1. -1. -1. -1. -1. -1. -1. -1. -1. -1. -1. -1. -1. -1. -1. -1. -1. -1. -1. -1. -1. -1. -1. -1. -1. 8.29420090e-01 8.36017311e-01 8.54046345e-01 8.11255217e-01 8.55513632e-01 8.69355142e-01 8.08027804e-01 8.82029235e-01 8.67026925e-01 8.61521900e-01 -1. -1. -1. -1. -1. -1. 9.05812263e-01 9.27901685e-01 9.49977040e-01 9.46627617e-01 9.59910154e-01 9.85361576e-01 9.49536800e-01 9.29497302e-01 8.93838644e-01 9.46560740e-01 9.35215592e-01 9.25541162e-01 8.90087366e-01 -1. -1.
    -1. -1. -1. -1. -1. -1. -1. -1. -1. -1. -1. -1. -1. -1. 1.02093089e+00 1.00216568e+00 1.01848614e+00 1.02204943e+00 1.04006457e+00 -1. -1. -1. 1.01709127e+00 1.02526772e+00 1.02648997e+00 1.03953362e+00 1.04801655e+00 1.08298087e+00 1.07104862e+00 1.10610878e+00 -1. -1. -1. -1. -1. -1. -1. -1. -1. -1. -1. -1. -1. -1. -1. -1. -1. -1. -1. -1. -1. -1. -1. 1.00671279e+00 1.01118803e+00 1.01382852e+00 1.01421654e+00 1.01816475e+00 1.01804268e+00 1.02532220e+00 1.02187848e+00 1.02889490e+00 1.05093873e+00 1.04852700e+00 9.83070552e-01 1.07158780e+00 1.04346049e+00 1.02157724e+00 1.05824029e+00 1.07230699e+00 1.06253719e+00 1.07327390e+00 1.07854080e+00 1.07093728e+00 -1. -1. -1. 1.10562825e+00 1.09897029e+00 1.11612046e+00 1.10362434e+00 1.11498570e+00 1.16960132e+00 1.17064393e+00 1.14566207e+00 -1. 1.23686135e+00 1.23579514e+00 1.03721106e+00 9.48783219e-01 9.43045557e-01 9.49147999e-01 -1. 9.96306300e-01 9.75282311e-01 -1. 9.92659032e-01 -1. -1. -1. -1. -1. -1. 9.75076795e-01 -1. -1. -1. -1. -1. -1. -1. -1. -1. -1. -1. -1. -1. -1. -1. -1. -1. -1. -1. -1. -1. -1. -1. -1. -1. -1. -1. -1. -1. -1. -1. -1. -1. -1. -1. -1. -1. -1. -1. -1. -1. -1. -1. -1. -1. -1. -1. -1. -1. -1. -1. -1. -1. -1. -1. -1. -1. -1. -1. -1. -1. -1. -1. 1.09837723e+00 1.10300922e+00 1.08560467e+00 1.11780834e+00 1.10597217e+00 1.09483445e+00 1.09547734e+00 1.11380816e+00 1.12690341e+00 1.14524627e+00 1.10249829e+00 1.10252798e+00 1.09837770e+00 1.10286319e+00 1.09678006e+00 1.06816006e+00 1.05846548e+00 1.10272801e+00 1.10413337e+00 1.06798267e+00 1.03653169e+00 1.09243357e+00 1.06228006e+00 1.03399682e+00 1.10458958e+00 1.08101201e+00 1.07494092e+00 1.08178079e+00 1.08627248e+00 1.07393074e+00 1.07070386e+00 1.07375920e+00 1.07037675e+00 1.08450603e+00 1.09154475e+00 1.10195637e+00 1.09185553e+00 1.10492039e+00 1.11387074e+00 1.10231602e+00 1.10383677e+00 1.10592496e+00 1.09235418e+00 1.08745587e+00 1.10087860e+00 1.09754217e+00 1.10826778e+00 1.11503303e+00 1.09169877e+00 1.08145070e+00 1.12203205e+00 1.05681670e+00 1.10961461e+00 1.08283639e+00 1.09881961e+00 1.09274054e+00 1.09774756e+00 1.09809875e+00 1.07624853e+00 1.11167037e+00 1.09680545e+00 1.10684669e+00 1.10828018e+00 1.10707104e+00 1.08403993e+00 -1. -1. 1.06843436e+00 1.08700871e+00 1.05351472e+00 1.02118385e+00 1.03237951e+00 1.00019932e+00 1.02079785e+00 1.01736438e+00 1.02839422e+00 1.01198912e+00 1.02789807e+00 1.01779521e+00 1.00377524e+00 1.00594985e+00 1.02569401e+00 1.01850343e+00 -1. -1. -1. 9.64978814e-01 9.62704360e-01 9.89719033e-01 9.83785689e-01 9.92351711e-01 1.00472808e+00 1.00333178e+00 9.93629158e-01 9.90813792e-01 9.86200750e-01 1.00291336e+00 9.30697381e-01 1.00222433e+00 1.08397090e+00 1.06317484e+00 9.72992599e-01 9.89412606e-01 1.01861131e+00 1.05376637e+00 1.04570961e+00 1.02437413e+00 1.01506329e+00 1.01475763e+00 1.02738750e+00 1.00842178e+00 1.00733995e+00 9.88373995e-01 1.01741326e+00 1.00191247e+00 1.00070000e+00 9.90728140e-01 1.02900100e+00 1.04417288e+00 1.03362656e+00 1.03154993e+00 1.03383994e+00 1.03011131e+00 1.02228129e+00 1.01533604e+00 1.00524974e+00 1.02895248e+00 1.01836371e+00 9.82961118e-01 9.97123182e-01 9.59444106e-01 1.01193619e+00 1.00011945e+00 9.97639060e-01 9.90029514e-01 9.96677876e-01 9.97274339e-01 9.48870063e-01 -1. -1. -1. -1. -1. 1.04162061e+00 1.06466115e+00 1.11104488e+00 1.16002226e+00 1.19618702e+00 1.17516387e+00 1.13128626e+00 1.09313226e+00 1.10204339e+00 1.10202622e+00 1.08930540e+00 1.10062683e+00 1.09109855e+00 1.09434783e+00 1.09833372e+00 1.08317077e+00 -1. 1.09278643e+00 -1. -1. -1. 1.08221304e+00 -1. 1.04922628e+00 1.04898810e+00 1.05230117e+00 9.90353703e-01 1.05214989e+00 1.02855980e+00 1.03914428e+00 -1. -1. -1. 8.60736489e-01 8.62397969e-01 8.68434191e-01 8.55225205e-01 8.17614377e-01 -1. -1. -1. -1. -1. -1. -1. -1. -1. -1. -1. -1. -1. -1. -1. -1. -1. -1. -1. -1. -1. -1. -1. -1. -1. -1. 7.77414262e-01 -1. 7.86965966e-01 7.78381467e-01 8.02381337e-01 8.00967634e-01 7.70206392e-01 8.10798347e-01 8.23708296e-01 8.61230493e-01 8.67696524e-01 8.78897786e-01 -1. -1. 8.61440361e-01 8.78753006e-01 8.69663835e-01 -1. -1. -1. -1. -1. -1. -1. -1. -1. -1. -1. -1. -1. -1. -1. -1. -1. -1. -1. -1. -1. -1. -1. -1. -1. -1. 8.17315042e-01 8.09975922e-01 8.06104243e-01 8.15754950e-01 7.93197691e-01 8.70159030e-01 8.74928057e-01 8.72342706e-01 8.72223973e-01 -1. -1. -1. -1. -1. -1. 8.47904384e-01 -1. 9.30213630e-01 9.54394639e-01 9.69355881e-01 9.64955151e-01 9.12045836e-01 8.80335689e-01 8.75141382e-01 9.08821344e-01 9.16878939e-01 9.11847830e-01 8.98850918e-01 9.02843893e-01 -1.
    -1. -1. -1. -1. -1. -1. -1. -1. -1. -1. -1. -1. -1. -1. 1.03568804e+00 1.03246224e+00 1.05300009e+00 1.05781853e+00 1.00059438e+00 -1. -1. -1. 1.01999617e+00 1.02031934e+00 1.04360163e+00 1.04710853e+00 1.04879522e+00 1.07869399e+00 1.07503259e+00 1.08791125e+00 -1. -1. -1. -1. -1. -1. -1. -1. -1. -1. -1. -1. -1. -1. -1. -1. -1. -1. -1. -1. -1. -1. -1. 1.00638449e+00 1.00772536e+00 1.00204408e+00 1.00651300e+00 1.00873935e+00 1.00938845e+00 9.98354077e-01 1.01291752e+00 1.00458312e+00 1.01466346e+00 9.95478690e-01 9.92062330e-01 1.01311755e+00 1.00686872e+00 1.01153934e+00 1.02270806e+00 1.03899944e+00 1.04454541e+00 1.04316545e+00 1.04078484e+00 1.07929993e+00 -1. -1. -1. -1. 1.10422993e+00 1.07815528e+00 1.05629301e+00 1.09843659e+00 -1. -1. -1. -1. 1.14572525e+00 1.14905810e+00 1.04799557e+00 9.46120679e-01 9.38674033e-01 9.42898095e-01 -1. -1. -1. -1. -1. -1. 1.03472602e+00 1.04272139e+00 1.03251004e+00 1.01432312e+00 9.84735012e-01 9.76892829e-01 9.69062030e-01 9.66015160e-01 9.53426659e-01 -1. -1. -1. -1. -1. -1. -1. -1. -1. -1. -1. -1. -1. -1. -1. -1. -1. -1. -1. -1. -1. -1. -1. -1. -1. -1. -1. -1. -1. -1. -1. -1. -1. -1. -1. -1. -1. -1. -1. -1. -1. -1. -1. -1. -1. -1. -1. -1. -1. -1. -1. -1. -1. -1. -1. -1. -1. -1. -1. -1. 1.09789979e+00 1.09892750e+00 1.10458672e+00 1.07732201e+00 1.10503852e+00 1.08787441e+00 1.13676369e+00 1.12034440e+00 1.08129311e+00 1.12674797e+00 1.11341369e+00 1.16898167e+00 1.10822213e+00 1.12150872e+00 1.11310065e+00 1.09940886e+00 1.09886253e+00 1.10488963e+00 1.15401447e+00 1.09959471e+00 1.09018838e+00 1.10180783e+00 1.09144628e+00 1.07062078e+00 1.06319392e+00 1.02057290e+00 1.08060408e+00 1.06341839e+00 1.06935310e+00 1.07437110e+00 1.06626117e+00 1.06349325e+00 1.05697608e+00 1.07854688e+00 1.07843375e+00 1.08148563e+00 1.04214454e+00 1.09271562e+00 1.08930337e+00 1.07574522e+00 1.08553064e+00 1.09058559e+00 1.11031365e+00 1.05735672e+00 1.10569191e+00 1.09140289e+00 1.11227703e+00 1.10108817e+00 1.07651758e+00 9.65177298e-01 1.05883932e+00 1.11047447e+00 9.82822001e-01 1.04754400e+00 1.10481644e+00 1.07890332e+00 1.10258675e+00 1.05305243e+00 1.08513749e+00 1.08888590e+00 1.08150005e+00 1.12530315e+00 1.08829141e+00 1.08605492e+00 1.04875839e+00 1.05377102e+00 1.01688635e+00 1.06816566e+00 1.09258640e+00 1.07908452e+00 1.03106344e+00 1.03036356e+00 1.02226186e+00 1.03040075e+00 1.03091383e+00 1.01806176e+00 1.02534616e+00 1.02186930e+00 1.01124382e+00 9.95272815e-01 9.94064391e-01 1.02252686e+00 1.02247059e+00 -1. -1. -1. 9.66355801e-01 9.64950502e-01 9.68331575e-01 9.71549034e-01 9.90569949e-01 1.00454879e+00 9.99969840e-01 1.00392258e+00 9.90790248e-01 9.74068761e-01 9.82678652e-01 9.88214016e-01 1.00454557e+00 1.00993526e+00 1.02944553e+00 9.79524434e-01 1.09727538e+00 1.03678513e+00 1.08764696e+00 1.03437936e+00 1.07488024e+00 9.70667779e-01 1.01214540e+00 1.04897654e+00 9.89253879e-01 9.98656273e-01 9.69237804e-01 9.99353588e-01 9.99225378e-01 9.78511989e-01 1.00302231e+00 9.98395979e-01 1.03128397e+00 1.03112364e+00 1.03214645e+00 -1. 1.01954997e+00 1.01510561e+00 1.00993788e+00 1.02919722e+00 1.07655799e+00 1.05216002e+00 1.01316082e+00 1.00351632e+00 9.89347577e-01 1.00706744e+00 9.99155641e-01 9.95953798e-01 9.92218018e-01 9.85565245e-01 9.88676548e-01 9.80116367e-01 -1. -1. -1. -1. -1. 1.06961501e+00 1.05864537e+00 1.27696538e+00 1.26262474e+00 -1. 1.13958633e+00 1.12885630e+00 1.10573983e+00 1.09659553e+00 1.09527230e+00 1.11083126e+00 1.10828054e+00 1.10521114e+00 1.11166096e+00 1.12375355e+00 1.10867369e+00 -1. -1. -1. -1. -1. 1.06756198e+00 -1. 1.06127703e+00 1.03181195e+00 1.04407847e+00 1.05678260e+00 1.05202484e+00 1.05390859e+00 1.03916478e+00 1.03840637e+00 -1. -1. 8.62274110e-01 8.78238082e-01 8.64748895e-01 8.36860299e-01 8.28160048e-01 -1. -1. -1. -1. -1. -1. -1. -1. -1. -1. -1. -1. -1. -1. -1. -1. -1. -1. -1. -1. -1. -1. -1. -1. -1. -1. -1. -1. -1. -1. 8.08054864e-01 8.07215989e-01 8.05450559e-01 8.13025355e-01 8.12450767e-01 8.36422324e-01 8.45369577e-01 8.34648252e-01 -1. -1. -1. -1. -1. -1. -1. -1. -1. -1. -1. -1. -1. -1. -1. -1. -1. -1. -1. -1. -1. -1. -1. -1. -1. -1. -1. -1. -1. -1. -1. 8.22885215e-01 7.95972705e-01 7.93807089e-01 7.94243813e-01 7.89198458e-01 7.80789077e-01 8.26375365e-01 8.66991222e-01 8.62077773e-01 1.00218594e+00 9.89833593e-01 -1. -1. -1. -1. -1. -1. 9.22786772e-01 9.39848363e-01 9.82644022e-01 9.26306129e-01 8.75592709e-01 8.72151256e-01 8.76088679e-01 9.09689903e-01 8.95566165e-01 8.98439944e-01 8.92232060e-01 9.00840223e-01 -1.
    -1. -1. -1. -1. -1. -1. -1. -1. -1. -1. -1. -1. -1. -1. 1.03717804e+00 1.05420280e+00 1.02411401e+00 -1. -1. -1. -1. -1. 1.03031576e+00 1.01265895e+00 1.02774394e+00 1.02386630e+00 1.04325724e+00 1.04398346e+00 1.04921770e+00 1.05581999e+00 1.06272888e+00 -1. -1. -1. -1. -1. -1. -1. -1. -1. -1. -1. -1. -1. -1. -1. -1. -1. -1. -1. -1. -1. -1. 1.01798081e+00 1.01039267e+00 1.00934339e+00 1.00919449e+00 9.99326587e-01 1.00449991e+00 9.99643683e-01 9.80539978e-01 9.95649755e-01 -1. 1.00283492e+00 9.95780706e-01 1.00624108e+00 1.00395346e+00 1.04214287e+00 1.02628446e+00 1.03049779e+00 1.02114689e+00 1.02244353e+00 1.01725101e+00 1.07760036e+00 -1. 1.13640618e+00 1.12569690e+00 1.12573028e+00 1.10708332e+00 1.10735297e+00 1.09033334e+00 1.06296861e+00 -1. 1.13425803e+00 1.12091064e+00 1.12081087e+00 1.11885881e+00 1.13696969e+00 9.87395465e-01 9.52365398e-01 9.39852118e-01 9.26680326e-01 -1. -1. -1. -1. -1. -1. -1. -1. 1.00947547e+00 9.80142355e-01 -1. 9.63773668e-01 9.77596939e-01 9.70678687e-01 9.66209114e-01 -1. -1. -1. -1. -1. -1. -1. -1. -1. -1. -1. -1. -1. -1. -1. -1. -1. -1. -1. -1. -1. -1. -1. -1. -1. -1. -1. -1. -1. -1. -1. -1. -1. -1. -1. -1. -1. -1. -1. -1. -1. -1. -1. 1.04926956e+00 1.04109418e+00 -1. -1. -1. -1. -1. -1. -1. -1. -1. -1. -1. -1. -1. -1. -1. -1. 1.11131740e+00 1.14317274e+00 1.13718522e+00 1.11069536e+00 1.11588216e+00 1.13316667e+00 1.09980834e+00 1.07732928e+00 1.10124087e+00 1.10699558e+00 1.08685648e+00 1.03158712e+00 1.19576073e+00 1.12987649e+00 1.12275064e+00 1.12190247e+00 1.11449730e+00 1.10869443e+00 1.11824834e+00 1.09578907e+00 1.08309114e+00 1.07843113e+00 1.07889843e+00 1.06001651e+00 1.02923870e+00 1.02607203e+00 1.02891433e+00 1.04460633e+00 1.06949711e+00 1.05422902e+00 1.07263458e+00 9.73480165e-01 1.06583261e+00 1.07692993e+00 1.09308887e+00 1.05200827e+00 1.07327485e+00 1.06615877e+00 1.07891202e+00 1.06651866e+00 1.06265891e+00 1.08425474e+00 1.06547809e+00 1.05531240e+00 1.05751419e+00 1.06235325e+00 1.07188225e+00 1.00636947e+00 1.08171761e+00 1.03294063e+00 1.02413547e+00 1.04323244e+00 1.05025530e+00 1.04312825e+00 1.07507277e+00 1.10392499e+00 1.07261467e+00 1.07853007e+00 1.03159392e+00 1.08259952e+00 1.07606304e+00 1.07297349e+00 1.06746197e+00 1.05699253e+00 1.05465376e+00 1.04997063e+00 1.07024193e+00 1.03481710e+00 1.05376899e+00 1.04501033e+00 1.01717401e+00 1.01009429e+00 1.02754509e+00 1.02957737e+00 1.02441418e+00 1.02325344e+00 1.02588880e+00 1.02079070e+00 1.00434387e+00 9.93409634e-01 1.03264737e+00 1.02243280e+00 -1. -1. 9.60881591e-01 9.68216240e-01 9.87607419e-01 9.65839982e-01 9.63808239e-01 9.62165236e-01 9.74525034e-01 9.97669041e-01 1.00204861e+00 9.85311925e-01 9.67044175e-01 9.83992159e-01 9.85060871e-01 1.00169671e+00 1.03575504e+00 1.03346276e+00 1.02980196e+00 1.03065705e+00 1.01347804e+00 1.07754481e+00 9.53794658e-01 1.03066480e+00 1.04931152e+00 1.03167963e+00 1.03375757e+00 1.03619039e+00 1.01679945e+00 1.00945890e+00 1.00972915e+00 9.99725521e-01 9.98080730e-01 1.00610781e+00 1.00987923e+00 -1. -1. -1. -1. -1. -1. -1. 1.04057002e+00 1.04768062e+00 1.05784094e+00 1.05757987e+00 9.57684636e-01 9.55674827e-01 9.89075184e-01 9.90731299e-01 9.91861820e-01 9.85870540e-01 9.83239830e-01 9.90425050e-01 9.83177602e-01 9.75454330e-01 -1. -1. -1. -1. -1. -1. -1. -1. -1. -1. -1. 1.10396564e+00 1.09775388e+00 1.08981454e+00 1.11108172e+00 1.10981572e+00 1.11560524e+00 1.11377084e+00 1.12003350e+00 -1. -1. -1. -1. -1. -1. 1.05564272e+00 -1. 1.05706358e+00 9.88410234e-01 1.03606021e+00 1.00709474e+00 1.03335762e+00 1.04531991e+00 1.04228139e+00 1.04624581e+00 -1. -1. 8.56254995e-01 8.42812002e-01 8.49997640e-01 8.47253680e-01 8.24391425e-01 8.46123695e-01 8.52864087e-01 8.65441740e-01 -1. -1. -1. -1. -1. -1. -1. -1. -1. -1. -1. -1. -1. -1. -1. -1. -1. -1. -1. -1. -1. -1. -1. -1. -1. -1. -1. 7.69493401e-01 8.09575796e-01 8.12409580e-01 8.01836967e-01 8.04178417e-01 8.35301220e-01 8.52869272e-01 8.51781547e-01 8.48547935e-01 8.56393397e-01 -1. -1. -1. -1. -1. -1. -1. -1. -1. -1. -1. -1. -1. -1. -1. -1. -1. -1. -1. -1. -1. -1. -1. -1. -1. -1. -1. -1. -1. 7.93519497e-01 8.17813694e-01 8.03924441e-01 7.99477637e-01 7.99344242e-01 8.02967429e-01 8.01246464e-01 8.81250978e-01 8.69577944e-01 9.98457789e-01 9.84589636e-01 9.93049622e-01 9.14622426e-01 8.38785887e-01 -1. -1. 9.38144743e-01 9.16912735e-01 9.00103390e-01 8.95749807e-01 9.59053099e-01 8.68876278e-01 8.69243562e-01 8.77232611e-01 8.76234829e-01 8.91132772e-01 8.98682714e-01 -1. -1. -1.
    -1. -1. -1. -1. -1. -1. -1. -1. -1. -1. -1. -1. -1. -1. -1. -1. 1.02182007e+00 1.01966619e+00 1.01356888e+00 -1. -1. -1. 1.02116632e+00 1.01299834e+00 1.01538396e+00 1.01656532e+00 1.02433372e+00 1.03234875e+00 1.06800795e+00 1.07367003e+00 1.08629179e+00 -1. -1. -1. -1. -1. -1. -1. -1. -1. -1. -1. -1. -1. -1. -1. -1. -1. -1. -1. -1. 1.03337216e+00 1.01729774e+00 1.00617373e+00 1.01789165e+00 1.01049519e+00 1.01176643e+00 1.01099062e+00 1.01191008e+00 1.01366472e+00 1.00483513e+00 -1. -1. -1. 9.93020833e-01 9.99329090e-01 9.98422146e-01 9.96932268e-01 1.03299391e+00 1.04957592e+00 1.05911708e+00 1.06409538e+00 1.04100227e+00 1.06578124e+00 -1. 1.13632941e+00 1.13422787e+00 1.13301897e+00 1.14530420e+00 1.13846529e+00 1.11055315e+00 -1. -1. 1.14145076e+00 1.12182426e+00 1.15371752e+00 1.14392447e+00 1.11602044e+00 -1. -1. 9.59012747e-01 9.33744431e-01 9.59256172e-01 9.51709032e-01 9.56268787e-01 -1. -1. -1. -1. -1. -1. -1. -1. 9.17156219e-01 9.80246425e-01 9.86206472e-01 9.68841076e-01 9.66047168e-01 -1. -1. -1. -1. -1. -1. -1. -1. -1. -1. -1. -1. -1. -1. -1. -1. -1. -1. -1. -1. -1. -1. -1. -1. -1. -1. -1. -1. -1. -1. -1. -1. -1. -1. -1. -1. -1. -1. -1. -1. -1. -1. 1.03577340e+00 1.04085147e+00 1.03967094e+00 1.04185355e+00 -1. -1. -1. -1. -1. -1. -1. -1. -1. -1. -1. -1. 1.11276424e+00 1.08476460e+00 1.11620533e+00 1.11722565e+00 1.12927604e+00 1.11573434e+00 1.13790226e+00 1.13733816e+00 1.11704540e+00 1.10644615e+00 1.10256183e+00 1.14171326e+00 1.11411607e+00 1.13931501e+00 1.11839449e+00 1.12796462e+00 1.11043251e+00 1.16131747e+00 1.10944223e+00 1.10090733e+00 1.09743571e+00 1.12118459e+00 1.07445598e+00 1.09553742e+00 1.07879078e+00 1.00497770e+00 9.94322538e-01 9.87959504e-01 9.97913182e-01 1.04885209e+00 1.03650558e+00 1.04542267e+00 1.09771824e+00 1.05311525e+00 1.12496984e+00 1.10570943e+00 1.07539773e+00 1.07039142e+00 1.09838188e+00 1.04101026e+00 1.06108105e+00 1.07155478e+00 1.08917940e+00 9.90121007e-01 1.05762029e+00 1.04205334e+00 1.04320359e+00 9.83922005e-01 1.03288293e+00 1.06442559e+00 1.03488886e+00 9.61657226e-01 1.02349615e+00 1.09488189e+00 1.07551944e+00 1.10314107e+00 1.08957803e+00 1.05969691e+00 1.05589926e+00 1.03676271e+00 1.02962220e+00 1.05299318e+00 1.05493152e+00 1.03871250e+00 1.05743980e+00 1.04564142e+00 1.06587791e+00 1.05674076e+00 1.04192173e+00 1.01912129e+00 1.03287017e+00 1.03024006e+00 1.02852404e+00 1.04096043e+00 1.04531336e+00 1.02918160e+00 1.02684963e+00 1.02548587e+00 1.03034222e+00 1.02004743e+00 1.00978792e+00 9.99211669e-01 1.02416825e+00 1.02438664e+00 -1. 9.67795312e-01 9.69293475e-01 9.70967293e-01 9.63078022e-01 9.76657033e-01 9.76324558e-01 9.64998662e-01 9.64427412e-01 1.02372849e+00 1.02916360e+00 1.00375557e+00 9.89873648e-01 9.84832466e-01 9.87150192e-01 9.98595417e-01 1.02432096e+00 1.03037012e+00 1.04260302e+00 1.06082797e+00 1.11296892e+00 1.06743538e+00 1.00110424e+00 1.05020821e+00 1.04670036e+00 1.04785168e+00 1.06266880e+00 1.06412923e+00 1.03529942e+00 1.03049123e+00 1.03600776e+00 1.04009509e+00 -1. -1. -1. -1. -1. -1. -1. -1. -1. -1. 1.04921126e+00 1.07564783e+00 1.00206578e+00 -1. -1. -1. 9.82117832e-01 9.82327700e-01 9.84732687e-01 9.72329676e-01 9.80826616e-01 9.82504189e-01 9.84802067e-01 9.72151160e-01 9.90611017e-01 9.87149417e-01 1.00588191e+00 -1. 1.33894348e+00 1.31739068e+00 1.26490033e+00 -1. -1. -1. -1. -1. -1. 1.09330928e+00 1.09020615e+00 1.12204742e+00 1.11278319e+00 1.10843682e+00 1.11003304e+00 -1. -1. -1. -1. -1. -1. -1. -1. 1.00168180e+00 1.02215517e+00 1.03389275e+00 1.03850245e+00 1.03388476e+00 1.04449046e+00 1.06592822e+00 1.03983104e+00 -1. -1. 8.56422663e-01 8.62145543e-01 8.86230350e-01 8.39677036e-01 8.28729093e-01 8.78576756e-01 8.61753345e-01 -1. -1. -1. -1. -1. -1. -1. -1. -1. -1. -1. -1. -1. -1. -1. -1. -1. -1. -1. -1. -1. -1. -1. -1. -1. -1. -1. -1. -1. 8.07850003e-01 8.18385601e-01 7.76064038e-01 7.66911030e-01 8.17592978e-01 8.53927076e-01 8.53231430e-01 8.73459220e-01 8.65733683e-01 8.63363028e-01 8.57911825e-01 -1. -1. -1. -1. -1. -1. -1. -1. -1. -1. -1. -1. -1. -1. -1. -1. -1. -1. -1. -1. -1. -1. -1. -1. -1. -1. -1. 8.20836484e-01 8.03351820e-01 8.00834894e-01 7.99027622e-01 7.98257113e-01 7.97481120e-01 8.19085121e-01 8.65292251e-01 8.60905826e-01 8.75344276e-01 8.19030762e-01 8.97542596e-01 9.46116865e-01 9.36988831e-01 9.03445721e-01 9.05187130e-01 9.37705755e-01 9.15529251e-01 9.21991825e-01 8.84924114e-01 9.17627275e-01 8.86821806e-01 8.88436615e-01 8.90876889e-01 9.00870919e-01 9.07473683e-01 9.09799695e-01 9.05000687e-01 -1. -1.
    -1. 1.22939134e+00 1.25161564e+00 -1. -1. -1. -1. -1. -1. -1. -1. -1. -1. -1. -1. -1. 1.04439330e+00 1.04575241e+00 1.02503490e+00 -1. -1. -1. -1. 1.01789868e+00 1.01396656e+00 1.01819050e+00 1.02424514e+00 1.03039169e+00 1.03150296e+00 1.04067624e+00 1.06708598e+00 1.04298651e+00 -1. -1. -1. -1. -1. -1. -1. -1. -1. -1. -1. -1. -1. -1. -1. -1. -1. -1. -1. 1.01738715e+00 1.01385725e+00 1.01571393e+00 1.01728415e+00 1.01330888e+00 1.01012123e+00 1.01295030e+00 1.00836253e+00 1.01049781e+00 1.00834978e+00 -1. -1. -1. -1. 1.00853455e+00 1.00101507e+00 1.00757992e+00 -1. 1.06748295e+00 1.07503521e+00 1.06951177e+00 1.05970371e+00 -1. 1.13376272e+00 1.16017210e+00 1.14731348e+00 1.15486896e+00 1.23144829e+00 -1. -1. -1. -1. 1.14336479e+00 1.13473237e+00 1.13849366e+00 1.16942453e+00 1.14906049e+00 -1. -1. 1.01115572e+00 9.44337249e-01 9.17656600e-01 9.45428014e-01 9.78058577e-01 9.53711390e-01 9.57333386e-01 9.70768988e-01 -1. -1. -1. -1. 9.25675273e-01 9.28466439e-01 9.47578251e-01 9.55880880e-01 9.72150624e-01 9.62767422e-01 -1. -1. -1. -1. -1. -1. -1. -1. -1. -1. -1. -1. -1. -1. -1. -1. -1. 9.07713592e-01 -1. -1. -1. -1. -1. -1. -1. -1. -1. -1. -1. -1. -1. -1. -1. -1. -1. -1. -1. -1. -1. -1. 1.03004742e+00 -1. 1.01512182e+00 1.03827548e+00 1.03997481e+00 -1. -1. -1. -1. -1. -1. -1. -1. -1. -1. -1. -1. -1. 1.14264786e+00 1.10596764e+00 1.10640323e+00 1.11616957e+00 1.11087918e+00 1.10229075e+00 1.09851885e+00 1.10821366e+00 1.12093282e+00 1.05279493e+00 1.10393941e+00 1.06208992e+00 1.16679704e+00 1.07971156e+00 1.08715630e+00 1.13104689e+00 1.15971684e+00 1.15137088e+00 1.10567272e+00 1.10301483e+00 1.11593533e+00 -1. -1. 1.09795916e+00 9.97251689e-01 9.62086797e-01 9.95023727e-01 9.90419567e-01 9.78081524e-01 9.78698730e-01 1.01663184e+00 1.02348423e+00 1.02991807e+00 1.04449034e+00 1.02277267e+00 1.06447816e+00 1.07212710e+00 1.07169747e+00 1.04492283e+00 9.88618970e-01 9.73440170e-01 9.17905927e-01 9.79884863e-01 1.05937278e+00 1.04752302e+00 1.04033697e+00 1.07094944e+00 9.93384421e-01 9.84155655e-01 9.89464521e-01 1.12414575e+00 9.95593727e-01 9.81851697e-01 1.02246881e+00 1.03080690e+00 9.96285081e-01 9.68621731e-01 1.04135668e+00 1.04363596e+00 1.04502690e+00 1.04458630e+00 1.02371848e+00 1.01358593e+00 1.05201149e+00 1.06240165e+00 1.06029201e+00 1.04980791e+00 1.01637340e+00 1.02510643e+00 1.02503026e+00 1.00263190e+00 1.03066933e+00 1.04664326e+00 1.02864861e+00 1.02485454e+00 1.01465845e+00 1.03381443e+00 1.03025699e+00 1.02499819e+00 1.03446436e+00 1.03227437e+00 1.05110300e+00 1.05455709e+00 -1. -1. 9.77258623e-01 9.71002400e-01 9.61562216e-01 9.97612715e-01 9.80708539e-01 1.00068641e+00 9.88230348e-01 9.88550246e-01 -1. -1. 1.03193748e+00 1.02183795e+00 9.97406423e-01 9.88919318e-01 1.00113869e+00 -1. -1. -1. 1.08159804e+00 1.06165731e+00 1.13115525e+00 1.13439608e+00 1.10361242e+00 -1. -1. -1. -1. 1.03546476e+00 1.05333185e+00 1.05436420e+00 1.09119582e+00 1.07418060e+00 -1. -1. -1. -1. -1. -1. -1. -1. -1. -1. 1.02642488e+00 -1. -1. -1. -1. 9.76501286e-01 9.77538407e-01 9.69303548e-01 9.66838419e-01 9.70620692e-01 9.89686787e-01 9.84178960e-01 9.77731645e-01 9.79376197e-01 9.65892673e-01 1.00347102e+00 -1. 1.28129447e+00 1.31661224e+00 -1. -1. -1. -1. -1. -1. -1. 1.08951128e+00 1.09541738e+00 1.09129882e+00 1.09539759e+00 1.09226000e+00 1.10163474e+00 -1. -1. -1. -1. -1. -1. -1. -1. 1.01021647e+00 1.01484275e+00 1.02611208e+00 1.03347600e+00 1.03601253e+00 1.04583716e+00 1.05714822e+00 1.05302048e+00 -1. -1. -1. 8.67856026e-01 8.83828223e-01 8.80233705e-01 8.58940065e-01 8.60390782e-01 8.69569361e-01 -1. -1. -1. -1. -1. -1. -1. -1. -1. -1. -1. -1. -1. -1. -1. -1. -1. -1. -1. -1. -1. -1. -1. -1. -1. -1. -1. -1. -1. -1. 8.07577193e-01 7.44061291e-01 8.13579261e-01 8.19940925e-01 8.60908926e-01 8.51805449e-01 8.66737306e-01 8.61453891e-01 8.68876636e-01 8.61870408e-01 -1. -1. -1. -1. -1. -1. -1. -1. -1. -1. -1. -1. -1. -1. -1. -1. -1. -1. -1. -1. -1. -1. -1. -1. -1. 8.26728404e-01 -1. 8.38826001e-01 8.67421687e-01 8.01385283e-01 8.01171839e-01 8.01037431e-01 8.01546812e-01 8.00577223e-01 7.98004329e-01 7.86067724e-01 8.58760178e-01 8.15799832e-01 8.26350987e-01 9.38908458e-01 9.03388083e-01 9.02172863e-01 8.98753822e-01 8.83818448e-01 8.65084708e-01 9.47362304e-01 1.01543093e+00 9.36557114e-01 9.22630608e-01 9.01014805e-01 9.02360320e-01 9.51369464e-01 9.42764044e-01 9.22497869e-01 9.28769588e-01 9.74694312e-01 -1.
    1.27278006e+00 1.27080679e+00 1.27417755e+00 1.25369215e+00 1.26560271e+00 -1. -1. -1. -1. -1. -1. -1. -1. -1. -1. -1. 1.03157544e+00 1.03488541e+00 1.00754762e+00 -1. -1. -1. -1. -1. 1.02647042e+00 1.00951278e+00 1.02430403e+00 1.02694738e+00 1.03935373e+00 1.03045177e+00 1.04808533e+00 1.05168271e+00 -1. -1. -1. -1. -1. -1. -1. -1. -1. -1. -1. -1. -1. -1. -1. -1. -1. -1. -1. 1.01346552e+00 1.01890612e+00 1.01671374e+00 1.01192558e+00 1.02670240e+00 1.01644766e+00 1.01300216e+00 1.00672150e+00 1.01112652e+00 1.01029694e+00 -1. -1. -1. 1.01817119e+00 1.02020717e+00 1.01824939e+00 1.02579212e+00 -1. 1.08839285e+00 1.07096159e+00 1.07744300e+00 1.07561553e+00 -1. 1.18470216e+00 1.20586264e+00 1.22732675e+00 1.21509588e+00 1.20564210e+00 -1. -1. -1. -1. 1.15290523e+00 1.11169338e+00 1.11366713e+00 1.12989938e+00 1.08587790e+00 1.12618351e+00 1.13476896e+00 1.08345056e+00 1.12998676e+00 1.01425016e+00 9.31039453e-01 9.34019685e-01 9.47752655e-01 9.98140574e-01 9.78135228e-01 9.71288145e-01 9.72247183e-01 9.54948127e-01 9.31774795e-01 -1. 9.37908769e-01 -1. 9.59948182e-01 9.64290142e-01 9.64333296e-01 9.63451028e-01 -1. -1. -1. -1. -1. -1. -1. -1. -1. -1. -1. -1. -1. -1. -1. -1. -1. 9.34331536e-01 9.38817024e-01 9.38802958e-01 9.40804064e-01 9.40614820e-01 -1. -1. -1. -1. -1. -1. -1. -1. -1. -1. -1. -1. -1. -1. -1. -1. -1. 1.03297138e+00 -1. 1.02822590e+00 1.03518701e+00 1.05670488e+00 -1. -1. -1. -1. -1. -1. -1. -1. -1. -1. -1. -1. -1. 1.13509274e+00 1.15692079e+00 1.12834978e+00 1.11122084e+00 1.09482002e+00 1.10164404e+00 1.08116591e+00 1.11046052e+00 1.06988370e+00 1.09764135e+00 -1. -1. -1. -1. -1. -1. 1.14910674e+00 1.15256560e+00 1.14024258e+00 1.15628445e+00 -1. -1. -1. -1. 1.00037086e+00 9.61656332e-01 1.01354659e+00 9.85399127e-01 9.93709922e-01 9.83989716e-01 1.01971364e+00 1.02844381e+00 1.02330363e+00 1.01998210e+00 1.05151725e+00 1.03328586e+00 1.09041858e+00 1.05530834e+00 1.03283119e+00 1.01141381e+00 9.92384791e-01 1.00167406e+00 1.01540470e+00 1.02787971e+00 1.02753544e+00 1.05226648e+00 9.91994977e-01 1.05749667e+00 1.05235648e+00 1.03817832e+00 1.03525031e+00 1.06608927e+00 9.65415359e-01 1.00134420e+00 1.00730026e+00 1.01441622e+00 1.01985025e+00 1.03388309e+00 1.05622029e+00 1.04367995e+00 1.07274544e+00 1.04920328e+00 1.08717608e+00 1.06919622e+00 1.07538843e+00 1.05445099e+00 1.12465656e+00 1.06251526e+00 1.04430139e+00 1.02119410e+00 1.01980317e+00 1.03398132e+00 1.01528931e+00 1.01949680e+00 1.01223481e+00 1.02035832e+00 1.03717017e+00 1.02626348e+00 1.03765190e+00 1.05991852e+00 1.03572404e+00 1.07463968e+00 1.05422568e+00 -1. -1. -1. -1. 9.78652954e-01 9.88330245e-01 9.93213773e-01 1.00628781e+00 1.01816821e+00 -1. -1. -1. -1. 1.02299333e+00 1.00504255e+00 9.97036815e-01 -1. -1. 1.07495856e+00 1.07999289e+00 1.12113333e+00 1.09668338e+00 1.08539045e+00 1.10604620e+00 1.10511613e+00 -1. -1. -1. -1. -1. 1.06229544e+00 1.04031003e+00 1.08421946e+00 1.10858691e+00 -1. -1. -1. -1. -1. -1. -1. -1. -1. -1. -1. 1.02987778e+00 -1. -1. -1. -1. 9.78441298e-01 9.72771764e-01 9.76193786e-01 9.65819061e-01 9.72762406e-01 9.61847007e-01 9.65474784e-01 9.82094705e-01 9.81526434e-01 1.00040221e+00 -1. -1. -1. -1. -1. -1. -1. -1. -1. -1. 1.07991028e+00 1.08703303e+00 1.08661294e+00 1.10415316e+00 1.10447538e+00 1.10407424e+00 -1. -1. -1. -1. -1. -1. -1. -1. 1.02235484e+00 1.04377103e+00 1.05515063e+00 1.04365337e+00 1.06431651e+00 1.04077685e+00 1.05661345e+00 1.07758486e+00 -1. -1. -1. -1. -1. -1. -1. -1. -1. -1. -1. -1. -1. -1. -1. -1. -1. -1. -1. -1. -1. -1. -1. -1. -1. -1. -1. -1. -1. -1. -1. -1. -1. -1. -1. -1. -1. -1. -1. 7.32505500e-01 7.27291226e-01 7.70826578e-01 8.13366532e-01 8.63406420e-01 8.63008797e-01 8.73300970e-01 8.67211878e-01 8.88957739e-01 8.56047392e-01 8.57352018e-01 -1. -1. -1. -1. -1. -1. -1. -1. -1. -1. -1. -1. -1. -1. -1. -1. -1. -1. -1. -1. -1. -1. -1. -1. 8.68593097e-01 -1. 8.61123264e-01 8.00647676e-01 7.99763203e-01 7.97617435e-01 7.96736836e-01 7.97479033e-01 7.75415301e-01 8.56430650e-01 8.56031954e-01 8.61384273e-01 8.62488508e-01 8.51163507e-01 8.66228223e-01 8.79463136e-01 8.99672568e-01 9.02307630e-01 9.15634036e-01 9.21665549e-01 1.05787683e+00 1.02876067e+00 9.17336941e-01 9.24263775e-01 8.86384666e-01 8.83601725e-01 -1. 8.97928238e-01 -1. 9.02576089e-01 9.98670340e-01 1.02455211e+00
    1.29005516e+00 1.29164553e+00 1.30132639e+00 1.28188396e+00 -1. -1. -1. -1. -1. -1. -1. -1. -1. -1. -1. -1. 1.03951252e+00 1.03269851e+00 1.04015326e+00 -1. -1. -1. -1. -1. 1.02797067e+00 1.02933943e+00 1.02470767e+00 1.03965139e+00 1.04203188e+00 1.04161513e+00 1.06174457e+00 1.05303681e+00 -1. -1. -1. -1. -1. -1. -1. -1. -1. -1. -1. -1. -1. -1. -1. -1. -1. -1. 1.00676000e+00 1.00555503e+00 1.01210523e+00 1.01518798e+00 1.01950669e+00 1.03432012e+00 1.03309822e+00 1.03562808e+00 1.03592372e+00 1.01531148e+00 1.00877941e+00 -1. 9.82626200e-01 9.93359625e-01 1.00680196e+00 1.02475381e+00 1.00935853e+00 1.06653225e+00 1.06846201e+00 1.08899355e+00 1.08419108e+00 1.09474707e+00 -1. -1. -1. 1.24217427e+00 1.23111510e+00 1.22835898e+00 -1. -1. -1. -1. -1. -1. -1. 1.12738693e+00 1.14241540e+00 1.13873398e+00 1.12831533e+00 1.13744974e+00 1.11423874e+00 1.11703074e+00 1.13905191e+00 1.04281020e+00 9.79633451e-01 9.71043944e-01 9.79238570e-01 9.80210483e-01 9.83376741e-01 -1. 9.59827781e-01 9.36544776e-01 9.35927629e-01 -1. -1. -1. -1. 9.60977256e-01 9.62256849e-01 -1. -1. -1. -1. -1. -1. -1. -1. -1. -1. -1. -1. -1. -1. -1. 8.43936086e-01 8.74988377e-01 8.76647651e-01 9.43503439e-01 9.49670851e-01 9.39266622e-01 9.41780746e-01 -1. -1. -1. -1. -1. -1. -1. -1. -1. -1. -1. -1. -1. -1. -1. -1. -1. 1.03836381e+00 1.03811467e+00 1.01923883e+00 1.02921081e+00 1.03170538e+00 -1. -1. -1. -1. -1. -1. -1. -1. -1. -1. -1. -1. 1.13678360e+00 -1. 1.14616311e+00 1.14508379e+00 1.12279689e+00 1.10954344e+00 1.09746587e+00 1.09298205e+00 1.10341096e+00 1.11323428e+00 1.12375128e+00 -1. -1. -1. -1. 1.16388988e+00 1.17455828e+00 1.13692713e+00 1.13227701e+00 1.13343024e+00 1.13898551e+00 -1. -1. -1. -1. 1.01257563e+00 1.02244973e+00 9.78718519e-01 9.86823678e-01 9.85163391e-01 9.85540926e-01 1.02091122e+00 1.02906239e+00 1.03125012e+00 1.08392978e+00 1.06767261e+00 1.11545801e+00 1.03061724e+00 1.06094801e+00 1.02341330e+00 1.01435196e+00 1.01047742e+00 9.98847604e-01 1.05215585e+00 1.05677629e+00 9.56364095e-01 1.03919792e+00 1.02436340e+00 1.04881513e+00 1.15381920e+00 1.04417562e+00 1.01450872e+00 1.01541841e+00 9.88921046e-01 9.95030761e-01 9.77666795e-01 1.00820208e+00 1.01921296e+00 1.02685583e+00 1.02521145e+00 1.01765513e+00 1.06495714e+00 1.00925362e+00 1.07789636e+00 1.09210908e+00 1.08331025e+00 1.07334220e+00 1.06597352e+00 1.05608690e+00 1.02247620e+00 9.77599561e-01 1.01597881e+00 1.02078545e+00 1.02202904e+00 1.00551522e+00 1.01384544e+00 1.03738093e+00 1.02949083e+00 1.03580403e+00 1.04943001e+00 1.04800677e+00 1.05874610e+00 1.04033339e+00 1.05734241e+00 -1. -1. -1. -1. -1. 9.93315160e-01 -1. -1. -1. -1. -1. -1. -1. 1.01739192e+00 -1. -1. -1. -1. 1.08633709e+00 1.09153855e+00 1.09850645e+00 1.09425569e+00 1.10227728e+00 1.12706518e+00 1.11752665e+00 -1. -1. -1. -1. -1. 1.10114825e+00 1.11668885e+00 1.14180219e+00 1.13247740e+00 1.10905659e+00 -1. -1. -1. -1. -1. -1. -1. -1. -1. -1. -1. -1. 1.02591491e+00 1.01477861e+00 9.79274333e-01 -1. -1. 9.66054559e-01 9.71661806e-01 9.65491831e-01 9.64252174e-01 9.84705091e-01 9.95116234e-01 9.87454057e-01 -1. -1. -1. -1. -1. -1. -1. -1. -1. -1. 1.08449876e+00 1.08699906e+00 1.08722627e+00 1.08386695e+00 1.08045149e+00 1.09151256e+00 1.07325125e+00 1.11768234e+00 -1. -1. -1. -1. -1. -1. -1. 1.05815077e+00 1.07433307e+00 1.08415866e+00 1.06283915e+00 1.06839871e+00 1.05418479e+00 -1. -1. -1. -1. -1. -1. -1. -1. -1. -1. -1. -1. -1. -1. -1. -1. -1. -1. -1. -1. -1. -1. -1. -1. -1. -1. -1. -1. -1. -1. -1. -1. -1. -1. -1. -1. -1. -1. -1. -1. -1. 7.29735136e-01 7.52469361e-01 7.35788941e-01 7.98365593e-01 8.74988914e-01 8.78669083e-01 8.78936231e-01 8.90500963e-01 8.76026094e-01 8.53339672e-01 8.54677558e-01 -1. -1. -1. -1. -1. -1. -1. -1. -1. -1. -1. -1. -1. -1. -1. -1. -1. -1. -1. -1. -1. -1. -1. -1. 8.56620431e-01 -1. 8.55654716e-01 7.99821675e-01 7.95361698e-01 7.91634142e-01 7.89519250e-01 7.81136990e-01 8.40977430e-01 8.74901235e-01 8.80094349e-01 8.71089637e-01 -1. 8.15643668e-01 8.31686020e-01 8.72548759e-01 9.31905806e-01 9.03853595e-01 9.42626357e-01 9.40727890e-01 9.41781163e-01 9.30044591e-01 9.19481277e-01 -1. -1. 8.98190320e-01 -1. 9.10080135e-01 -1. 9.87665176e-01 1.07387114e+00 1.05981910e+00
    1.30547035e+00 1.32061827e+00 1.31479979e+00 -1. -1. -1. -1. -1. -1. -1. -1. -1. -1. -1. -1. -1. 9.68841672e-01 1.01233804e+00 1.02813959e+00 1.03358734e+00 1.09717941e+00 1.01456988e+00 -1. -1. 1.03038430e+00 1.02864158e+00 1.03900313e+00 1.05084217e+00 1.05930114e+00 1.08980346e+00 1.03230286e+00 -1. -1. -1. -1. -1. -1. -1. -1. -1. -1. -1. -1. -1. -1. -1.66635773e+02 -1. -1. -1. -1. 1.01864362e+00 1.01918519e+00 1.01876438e+00 1.01755714e+00 1.01591074e+00 1.01827192e+00 1.01868808e+00 1.03140998e+00 1.03519261e+00 1.02204812e+00 -1. -1. 9.99315858e-01 9.92701054e-01 1.00333786e+00 1.01105213e+00 1.01975513e+00 1.01462626e+00 1.08728254e+00 1.07285976e+00 1.08922708e+00 1.08755243e+00 -1. -1. -1. 1.26279795e+00 1.24009764e+00 1.24270129e+00 1.21148539e+00 -1. -1. -1. -1. -1. -1. -1. 1.10761559e+00 1.10186279e+00 1.12001956e+00 1.13382924e+00 1.12773025e+00 1.12291014e+00 1.13354373e+00 1.13800657e+00 1.14746296e+00 1.10908127e+00 1.00979328e+00 1.00037670e+00 9.88449395e-01 -1. -1. -1. -1. -1. -1. -1. -1. 9.60765541e-01 -1. -1. -1. -1. -1. -1. -1. -1. -1. -1. -1. -1. -1. -1. 8.44585598e-01 8.48168612e-01 8.56231451e-01 8.58077705e-01 8.64544988e-01 9.47806954e-01 9.17380393e-01 9.30990934e-01 9.40552890e-01 -1. -1. -1. -1. -1. -1. -1. -1. -1. -1. -1. -1. -1. -1. -1. -1. -1. 1.03463650e+00 -1. 1.02733350e+00 1.03519714e+00 1.02610850e+00 -1. -1. -1. -1. -1. -1. -1. -1. -1. -1. -1. -1. -1. -1. 1.13788903e+00 1.13657522e+00 1.12724030e+00 1.11997914e+00 1.10403895e+00 1.09844267e+00 1.11763597e+00 1.12236345e+00 1.13235354e+00 1.10098088e+00 1.07669854e+00 1.03609705e+00 1.06839287e+00 1.13603699e+00 1.11869216e+00 1.05399990e+00 1.15748167e+00 -1. -1. -1. -1. -1. -1. 9.94878650e-01 9.90529954e-01 9.88388360e-01 1.02922595e+00 9.78817642e-01 9.77665186e-01 9.76750851e-01 1.03146243e+00 1.02321982e+00 -1. -1. 1.03228629e+00 1.06678808e+00 1.02866423e+00 9.64099884e-01 1.00245118e+00 1.04776192e+00 1.09568167e+00 1.03331769e+00 9.92325783e-01 1.00620532e+00 1.01767397e+00 1.03420663e+00 1.05078840e+00 1.06203246e+00 1.02790046e+00 1.02055359e+00 1.00335824e+00 1.03461647e+00 1.03047216e+00 -1. 1.01190150e+00 1.02913260e+00 1.02326965e+00 1.04549956e+00 1.05221903e+00 1.07193518e+00 1.06430912e+00 1.07374668e+00 -1. 1.10013175e+00 1.11111927e+00 1.03020346e+00 1.04430223e+00 1.03675711e+00 1.01827168e+00 -1. 1.01670551e+00 1.01974070e+00 1.00486660e+00 1.01350474e+00 -1. -1. -1. -1. 1.10825229e+00 1.08464193e+00 1.08871174e+00 -1. -1. -1. -1. -1. -1. -1. -1. -1. -1. -1. -1. -1. -1. -1. -1. -1. -1. -1. 1.03435099e+00 1.09692132e+00 1.06948018e+00 1.07306278e+00 1.09785175e+00 1.13201094e+00 -1. -1. -1. -1. 1.09641123e+00 1.10939956e+00 1.11031568e+00 1.10619152e+00 1.10841990e+00 1.08927524e+00 -1. -1. -1. -1. -1. -1. -1. -1. -1. -1. -1. -1. -1. 1.05590832e+00 1.04209578e+00 1.00379252e+00 -1. -1. 9.80038941e-01 9.81439888e-01 9.72280562e-01 9.86746490e-01 9.78588700e-01 9.80310142e-01 9.82526958e-01 -1. -1. -1. -1. -1. 1.15633285e+00 1.16034198e+00 -1. -1. -1. 1.10749412e+00 1.09105885e+00 1.09330344e+00 1.09530199e+00 1.07870579e+00 1.08250499e+00 1.07066786e+00 1.09671211e+00 -1. -1. -1. -1. -1. -1. -1. 1.08459508e+00 1.08978021e+00 1.06403220e+00 1.08128381e+00 1.05541408e+00 1.06479526e+00 1.08877218e+00 1.09997129e+00 -1. -1. -1. 8.52175891e-01 8.49491596e-01 8.40009332e-01 8.41947198e-01 -1. -1. -1. -1. -1. -1. -1. -1. -1. -1. -1. -1. -1. -1. -1. -1. -1. -1. -1. -1. -1. -1. -1. -1. -1. -1. -1. -1. -1. -1. -1. -1. 7.54258037e-01 7.53176093e-01 7.42267728e-01 7.81055093e-01 8.40670764e-01 8.34955633e-01 8.23717892e-01 8.20891261e-01 8.14721107e-01 8.33200276e-01 8.66426706e-01 8.55717838e-01 8.55086565e-01 -1. -1. -1. -1. -1. -1. -1. -1. -1. -1. -1. -1. -1. -1. -1. -1. -1. -1. -1. -1. -1. -1. -1. -1. -1. 8.19476724e-01 7.99992383e-01 7.95138896e-01 7.89284885e-01 7.84081042e-01 7.79289186e-01 8.95371258e-01 8.93986583e-01 8.73531699e-01 -1. -1. 9.01686430e-01 8.76390457e-01 8.24612796e-01 8.97122085e-01 9.24961686e-01 9.46613848e-01 9.36574221e-01 9.35210168e-01 9.21865463e-01 -1. -1. 8.91694009e-01 -1. -1. 9.63691652e-01 1.00063980e+00 1.04802132e+00 9.96347368e-01
    1.30489957e+00 -1. -1. -1. -1. -1. -1. -1. -1. -1. -1. -1. -1. -1. -1. 9.96026516e-01 9.89105165e-01 1.00128210e+00 9.97900009e-01 1.03628600e+00 1.11604273e+00 1.01039112e+00 1.03646386e+00 1.04590273e+00 1.03745663e+00 1.04399335e+00 1.05732095e+00 1.06383836e+00 1.07352352e+00 1.11823821e+00 -1. -1. -1. -1. -1. -1. -1. -1. -1. -1. -1. -1. -1. -8.31443253e+01 -1. 7.21048767e+02 -6.85232697e+01 -1. -1. -1. 1.03641212e+00 1.02648234e+00 1.02038419e+00 1.01421678e+00 1.01412570e+00 1.01687241e+00 1.01701260e+00 1.01453924e+00 1.01974535e+00 1.02406096e+00 1.02301693e+00 -1. 9.98321831e-01 9.90803003e-01 9.91300285e-01 9.95758832e-01 9.97194171e-01 1.00799596e+00 1.05099010e+00 1.03927207e+00 1.06079578e+00 1.07019866e+00 1.07919121e+00 -1. -1. -1. 1.21667922e+00 -1. 1.13519740e+00 -1. -1. -1. -1. -1. -1. 1.10791647e+00 1.09945309e+00 1.10887563e+00 1.10911345e+00 -1. -1. 1.13108540e+00 1.12346113e+00 1.17244506e+00 1.13868082e+00 1.11987078e+00 1.06301105e+00 1.01421738e+00 -1. -1. -1. -1. -1. -1. -1. -1. -1. -1. -1. -1. -1. -1. -1. -1. -1. -1. -1. -1. -1. -1. -1. -1. 8.35124791e-01 8.35126877e-01 8.60712290e-01 8.59077036e-01 8.62024784e-01 8.36472154e-01 -1. -1. -1. -1. -1. -1. -1. -1. -1. -1. -1. -1. -1. -1. -1. -1. -1. -1. -1. -1. -1. -1. 1.02576435e+00 1.01806295e+00 1.02460158e+00 -1. -1. -1. -1. -1. -1. -1. -1. -1. -1. -1. -1. -1. -1. 1.11928868e+00 1.14773381e+00 1.13258207e+00 1.10477030e+00 1.09303081e+00 1.11021650e+00 1.11848497e+00 1.10954118e+00 1.09068704e+00 1.09415841e+00 1.08447587e+00 1.07929575e+00 1.06982386e+00 1.06175292e+00 1.04577649e+00 1.05588806e+00 -1. -1. -1. -1. -1. -1. -1. 9.81254101e-01 9.69839215e-01 9.68428075e-01 9.73914504e-01 9.73016322e-01 9.78362679e-01 9.79217172e-01 9.86907244e-01 1.04810739e+00 -1. 1.04684579e+00 9.72791076e-01 1.01481104e+00 -1. -1. 1.07631099e+00 1.06357431e+00 1.00717795e+00 -1. -1. -1. -1. -1. -1. -1. 9.93243992e-01 1.01905823e+00 1.01173472e+00 1.05481803e+00 1.00037110e+00 -1. -1. -1. -1. -1. 1.06495881e+00 1.09261310e+00 1.07689524e+00 -1. -1. -1. -1. -1. -1. -1. -1. -1. 1.03295648e+00 1.04820645e+00 1.01290631e+00 -1. -1. -1. -1. -1. 1.09501112e+00 1.04316306e+00 1.10492706e+00 -1. -1. -1. -1. -1. -1. -1. -1. -1. -1. -1. -1. -1. -1. -1. -1. -1. -1. 1.07224143e+00 1.04613662e+00 1.03357971e+00 1.04217851e+00 1.01052105e+00 1.08463800e+00 1.12298298e+00 1.11655772e+00 1.10268307e+00 1.16279483e+00 1.04618692e+00 1.09307611e+00 1.10006702e+00 1.11389720e+00 1.10817099e+00 1.11152685e+00 1.10456836e+00 -1. -1. -1. -1. -1. -1. -1. -1. -1. -1. -1. -1. 1.03007519e+00 1.02182567e+00 1.06102395e+00 1.01418447e+00 -1. 9.73208070e-01 9.73824143e-01 9.75262344e-01 9.68164027e-01 9.76148248e-01 9.74081099e-01 9.75571990e-01 9.86392558e-01 -1. -1. -1. -1. 1.15218019e+00 1.16982901e+00 1.19899404e+00 1.14379311e+00 1.12439823e+00 1.09737813e+00 1.04822862e+00 1.08597541e+00 1.06154883e+00 1.06745219e+00 1.05963743e+00 1.06120169e+00 1.06503141e+00 1.11447096e+00 -1. -1. -1. -1. -1. -1. -1. 1.06438494e+00 1.06255925e+00 1.04072118e+00 1.04106998e+00 1.04265451e+00 1.03478384e+00 1.05674076e+00 1.06963241e+00 -1. -1. -1. 8.61751854e-01 8.55179250e-01 8.50817680e-01 8.45597565e-01 -1. -1. -1. -1. -1. -1. -1. -1. -1. -1. -1. -1. -1. -1. -1. -1. -1. -1. -1. -1. -1. -1. -1. -1. -1. -1. -1. -1. -1. -1. -1. -1. 7.61761665e-01 7.48003066e-01 7.36114800e-01 7.36084700e-01 8.28712285e-01 8.28487873e-01 8.03431094e-01 8.04130077e-01 8.27411830e-01 8.35175753e-01 8.39725733e-01 -1. -1. -1. -1. -1. -1. -1. -1. -1. -1. -1. -1. -1. -1. -1. -1. -1. -1. -1. -1. -1. -1. -1. -1. -1. -1. -1. 8.04500520e-01 8.01547885e-01 7.97560394e-01 7.93372333e-01 7.96593845e-01 7.91107118e-01 7.90041387e-01 7.90043294e-01 7.93215692e-01 -1. -1. 9.01127040e-01 8.88110459e-01 9.02970731e-01 8.97737384e-01 9.01316941e-01 8.78410697e-01 9.31683600e-01 9.17096674e-01 -1. -1. -1. -1. -1. -1. 9.60255861e-01 9.77171719e-01 9.98327911e-01 1.00522554e+00
    -1. -1. -1. -1. -1. -1. -1. -1. -1. -1. -1. -1. 1.01342571e+00 -1. 9.80545878e-01 9.96472001e-01 1.00266898e+00 1.01410341e+00 1.02017677e+00 1.04117370e+00 9.96907175e-01 1.09144473e+00 1.04429579e+00 1.03383076e+00 1.08668101e+00 1.07687378e+00 1.07087111e+00 1.05641389e+00 1.10954797e+00 -1. -1. -1. -1. -1. -1. -1. -1. -1. -1. -1. -1. -1. -1. -1. -1.37684174e+02 -2.46675472e+01 -5.35968285e+01 -1. -1. -1. -1. -1. 1.01403975e+00 9.99059141e-01 1.01625228e+00 1.00310576e+00 1.02012599e+00 1.01699173e+00 1.01658356e+00 1.01564932e+00 5.18792033e-01 1.02118027e+00 9.88595903e-01 9.89472687e-01 9.94997382e-01 1.01456130e+00 1.01183248e+00 1.01617181e+00 1.05151963e+00 1.02007580e+00 1.06470013e+00 1.07094276e+00 1.08629096e+00 -1. -1. -1. 1.15400589e+00 1.11530888e+00 1.07345521e+00 -1. -1. -1. -1. -1. 1.10392869e+00 1.09549630e+00 1.11127257e+00 1.10931313e+00 1.07928288e+00 -1. -1. 1.13538861e+00 1.10928082e+00 1.13122463e+00 1.15479946e+00 1.13389170e+00 1.13317466e+00 1.06511724e+00 -1. -1. -1. -1. -1. -1. -1. -1. -1. -1. -1. -1. -1. -1. -1. -1. -1. -1. -1. -1. -1. -1. 8.36165071e-01 8.31952453e-01 8.70294094e-01 8.61810625e-01 8.66160333e-01 8.55999649e-01 8.48582685e-01 8.56089950e-01 -1. -1. -1. -1. -1. -1. -1. -1. -1. -1. -1. -1. -1. -1. -1. -1. -1. -1. -1. -1. -1. -1. -1. -1. -1. -1. -1. -1. -1. -1. -1. -1. -1. -1. -1. -1. -1. -1. -1. 1.13481414e+00 1.13940442e+00 1.12947690e+00 1.16005147e+00 1.13788772e+00 1.10433602e+00 1.11106086e+00 1.10514414e+00 1.07504737e+00 1.09495974e+00 1.11743975e+00 1.06003571e+00 1.06046689e+00 1.06626368e+00 -1. -1. -1. -1. -1. -1. -1. -1. -1. -1. 9.76251841e-01 9.78510141e-01 9.78268564e-01 9.76604521e-01 9.78869140e-01 9.78796721e-01 1.02916801e+00 1.03727388e+00 -1. 1.04198611e+00 9.66242731e-01 9.71469283e-01 -1. -1. 1.07443666e+00 1.03972554e+00 1.04042578e+00 -1. -1. -1. -1. -1. -1. -1. 1.00603974e+00 1.04952729e+00 1.01357353e+00 1.01862514e+00 1.02108192e+00 -1. -1. -1. -1. -1. 1.08787131e+00 1.11914575e+00 1.09060895e+00 -1. -1. -1. -1. -1. -1. -1. -1. 1.12939179e+00 1.09902358e+00 1.06156886e+00 1.06682396e+00 1.07223368e+00 -1. -1. -1. -1. 1.12355042e+00 1.14157307e+00 1.16119874e+00 1.17198563e+00 -1. -1. 1.17335010e+00 1.21356356e+00 1.10574543e+00 1.29092050e+00 -1. 1.20214093e+00 -1. -1. -1. -1. -1. 1.18582606e+00 1.17798829e+00 1.19291317e+00 1.20294714e+00 1.05156350e+00 1.04264057e+00 1.04327691e+00 1.04196203e+00 1.11350250e+00 1.07806432e+00 1.09458649e+00 1.11746502e+00 1.13042748e+00 1.12296999e+00 1.13491035e+00 1.09617937e+00 1.05749071e+00 -1. 1.10104132e+00 1.11330175e+00 1.10774851e+00 -1. 1.10562539e+00 1.11913693e+00 1.14572155e+00 1.16347349e+00 1.17932308e+00 -1. 1.16308391e+00 1.14834273e+00 1.12422109e+00 -1. -1. 1.04751432e+00 1.05643809e+00 1.02683842e+00 1.00061977e+00 9.69070554e-01 9.77726758e-01 9.79676366e-01 9.80973780e-01 9.77469385e-01 9.76306379e-01 9.70250607e-01 9.66064215e-01 9.68566477e-01 -1. -1. -1. -1. -1. 1.16282046e+00 1.16105187e+00 1.16735661e+00 1.09065831e+00 1.10848057e+00 1.10284925e+00 1.10293603e+00 1.09335029e+00 1.08985591e+00 1.09242773e+00 1.09246588e+00 1.09093010e+00 1.09062684e+00 -1. -1. -1. -1. -1. -1. -1. -1. -1. 1.03183198e+00 1.03552532e+00 1.03598523e+00 1.03597665e+00 1.08451033e+00 1.05889702e+00 -1. -1. 8.82293463e-01 8.73022318e-01 8.65960598e-01 8.60296488e-01 8.76904488e-01 -1. -1. -1. -1. -1. -1. -1. -1. -1. -1. -1. -1. -1. -1. -1. -1. -1. -1. -1. -1. -1. -1. -1. -1. -1. -1. -1. -1. -1. -1. -1. 7.80262947e-01 8.02428067e-01 7.89395213e-01 7.40891993e-01 7.73845136e-01 8.02727759e-01 8.28370094e-01 8.23650122e-01 8.33521187e-01 8.28864515e-01 8.32067788e-01 8.59254777e-01 8.50844681e-01 -1. -1. -1. -1. -1. -1. -1. -1. -1. -1. -1. -1. -1. -1. -1. -1. -1. -1. -1. -1. -1. -1. -1. -1. -1. -1. 8.10808539e-01 8.02091002e-01 7.99359798e-01 7.96485901e-01 7.96623647e-01 7.89757252e-01 7.94680357e-01 7.99183667e-01 -1. -1. -1. 8.91116798e-01 8.69610131e-01 9.03744519e-01 8.95350158e-01 8.83982837e-01 8.74804258e-01 8.90378356e-01 -1. -1. -1. -1. -1. -1. 9.27991629e-01 9.36687946e-01 9.13287699e-01 9.93206918e-01 9.78085637e-01</data></Depth>
</opencv_storage>
