<?xml version="1.0"?>
<opencv_storage>
<Depth type_id="opencv-matrix">
  <rows>22</rows>
  <cols>439</cols>
  <dt>f</dt>
  <data>
    8.49227071e-01 8.51305783e-01 -1. -1. -1. -1. -1. -1. -1. -1. -1. -1. -1. -1. -1. -1. -1. 7.99202919e-01 8.04156303e-01 7.84883082e-01 8.11744809e-01 8.25060129e-01 8.25500488e-01 8.18440676e-01 8.17805827e-01 8.20392072e-01 8.32230091e-01 8.22271287e-01 9.02698100e-01 8.32655907e-01 -1. -1. -1. -1. -1. -1. -1. -1. -1. -1. -1. -1. -1. -1. -1. -1. -1. -1. -1. -1. -1. -1. -1. -1. -1. -1. -1. -1. -1. -1. -1. -1. -1. -1. -1. -1. -1. -1. -1. -1. -1. 9.83450651e-01 9.70285594e-01 1.00971723e+00 9.61058736e-01 9.17863011e-01 9.62825537e-01 9.75689113e-01 9.48988199e-01 9.63854730e-01 9.63835359e-01 -1. -1. -1. -1. -1. -1. -1. -1. -1. -1. -1. -1. -1. -1. -1. -1. -1. -1. 1.01814997e+00 1.01430416e+00 1.03818762e+00 1.02162397e+00 1.01804578e+00 1.02094519e+00 1.00814581e+00 1.01490355e+00 1.02367103e+00 1.01522195e+00 1.02897084e+00 1.02361870e+00 1.02432406e+00 -1. -1. -1. -1. -1. -1. -1. -1. -1. -1. -1. -1. -1. -1. -1. -1. -1. -1. -1. -1. -1. 9.56455171e-01 9.79785979e-01 1.00682032e+00 1.01733017e+00 1.01030171e+00 1.02066064e+00 1.02265549e+00 1.01798296e+00 9.82747972e-01 9.96023774e-01 1.01883078e+00 9.89712477e-01 -1. 9.99495387e-01 9.92017388e-01 9.88856494e-01 9.78361905e-01 9.81248498e-01 1.00713634e+00 9.79022324e-01 -1. -1. -1. 1.17139506e+00 1.16242671e+00 1.15860450e+00 1.12930906e+00 1.03899300e+00 1.05571949e+00 1.08468282e+00 1.10561526e+00 1.12315428e+00 1.20790493e+00 1.22774661e+00 1.22444785e+00 1.22292399e+00 1.13472176e+00 1.16660285e+00 1.17970276e+00 1.13885391e+00 1.14434373e+00 -1. 1.12787700e+00 1.10282886e+00 1.11042237e+00 1.07158923e+00 1.08296609e+00 1.09435654e+00 -1. -1. -1. -1. -1. -1. -1. -1. -1. -1. -1. -1. -1. -1. 9.46078479e-01 9.60715652e-01 7.77503490e-01 7.77601898e-01 7.59654164e-01 -1. 7.19949841e-01 7.37969100e-01 7.29611576e-01 7.39499807e-01 7.42991030e-01 7.42368698e-01 7.74989069e-01 7.43823826e-01 7.47574210e-01 -1. -1. -1. -1. -1. -1. -1. -1. -1. -1. -1. -1. 7.48331606e-01 7.38504410e-01 7.43315041e-01 7.50604570e-01 7.50148535e-01 7.46454120e-01 7.59804606e-01 7.63762295e-01 7.94774711e-01 -1. -1. -1. -1. -1. -1. -1. -1. -1. -1. -1. -1. -1. -1. -2.37504349e+01 -2.35231667e+01 -3.04928570e+01 -7.16779022e+01 -1. -1. -1. -1. -1. -1. -1. -1. -1. -1. -1. 2.06300333e-01 -1. -1. 2.06308901e-01 -1. 1.04540229e+00 1.06095147e+00 1.04956412e+00 1.01341379e+00 1.02532649e+00 1.12993693e+00 1.12157512e+00 1.11559939e+00 1.11533678e+00 1.10457349e+00 1.11067140e+00 1.08106041e+00 1.08873308e+00 1.08463645e+00 1.05691695e+00 -1. -1. -1. -1. -1. -1. -1. -1. -1. -1. -1. -1. -1. -1. -1. -1. -1. -1. -1. -1. -1. -1. -1. -1. -1. 9.62454379e-01 9.59364593e-01 9.78529871e-01 9.57647800e-01 9.44413126e-01 1.00011551e+00 9.67047572e-01 9.53069627e-01 9.63034570e-01 1.00175583e+00 1.01249230e+00 1.02119529e+00 1.04298389e+00 1.00076079e+00 1.04299259e+00 1.04838657e+00 1.02264726e+00 1.00050795e+00 1.00614977e+00 9.74000335e-01 9.61744964e-01 9.58945394e-01 9.57673311e-01 -1. -1. -1. -1. -1. -1. -1. -1. -1. -1. -1. -1. -1. -1. -1. -1. -1. -1. -1. -1. -1. -1. -1. -1. -1. -1. -1. -1. -1. -1. -1. -1. -1. 1.03987372e+00 9.71596777e-01 1.00363779e+00 1.00453365e+00 1.01709843e+00 1.01117826e+00 1.01007521e+00 1.01470983e+00 -1. 9.85445440e-01 1.00820887e+00 1.00929737e+00 1.00599539e+00 1.00342560e+00 1.00022984e+00 9.99272048e-01 9.98972058e-01 9.97347236e-01 9.82093751e-01 9.83677506e-01 9.86028731e-01 9.87145305e-01 9.86967027e-01 9.84032094e-01 9.88739371e-01 9.72271740e-01 1.03942752e+00 1.02780926e+00 1.02013135e+00 -1. 1.09818363e+00 1.07059097e+00 1.09035432e+00 1.08486056e+00 1.08606875e+00 1.09477210e+00 1.09306502e+00 1.12135148e+00 1.11677504e+00 -1. -1. -1. -1. -1. -1. -1. -1. -1. -1. -1. 1.01205957e+00 1.03018713e+00 1.03389978e+00 1.03828263e+00 1.04005730e+00 1.06703532e+00 1.05681849e+00 9.97470498e-01 -1. 1.09456766e+00 1.10768175e+00 1.11537123e+00 -1. -1. -1. -1. -1. 9.34492171e-01 9.12337959e-01 9.18786824e-01 9.01663244e-01 8.98005962e-01 -1. -1. -1. -1. -1. -1.
    8.54568958e-01 -1. -1. -1. -1. -1. -1. -1. -1. -1. -1. -1. -1. -1. -1. -1. -1. -1. 8.24429095e-01 8.33656371e-01 8.33285689e-01 8.16350102e-01 8.01394999e-01 8.29308510e-01 8.06974351e-01 7.89250314e-01 8.12631726e-01 7.65998006e-01 7.67896116e-01 8.45615923e-01 8.69374156e-01 8.55402768e-01 8.46829712e-01 -1. -1. -1. -1. -1. -1. -1. -1. -1. -1. -1. -1. -1. -1. -1. -1. -1. -1. -1. -1. -1. -1. -1. -1. -1. -1. -1. -1. -1. -1. -1. -1. -1. -1. -1. -1. -1. -1. 9.80242550e-01 1.00246537e+00 9.58474457e-01 9.17482316e-01 9.19139266e-01 9.89035010e-01 9.90639329e-01 9.70020831e-01 9.73321140e-01 9.91827488e-01 -1. -1. -1. -1. -1. -1. -1. -1. -1. -1. -1. -1. -1. -1. -1. -1. -1. -1. 1.00875199e+00 1.00134969e+00 1.00751996e+00 1.01291525e+00 1.01113963e+00 1.01902747e+00 1.01287770e+00 1.02164268e+00 1.02362704e+00 1.02388012e+00 1.01387656e+00 1.03994572e+00 1.03175044e+00 -1. -1. -1. -1. -1. -1. -1. -1. -1. -1. -1. -1. -1. -1. -1. -1. -1. -1. -1. -1. -1. -1. 9.92521942e-01 1.00333428e+00 1.00294387e+00 1.00991726e+00 1.00875390e+00 1.01014030e+00 1.00618351e+00 9.96229708e-01 9.85459328e-01 -1. -1. -1. 9.94709849e-01 9.73311067e-01 9.79276061e-01 9.81250763e-01 9.74205077e-01 9.66787040e-01 9.68482614e-01 -1. -1. -1. -1. 1.19143844e+00 1.18402612e+00 1.15520406e+00 1.18241024e+00 1.10063171e+00 1.06605184e+00 1.06676722e+00 1.10915709e+00 1.12932837e+00 1.12214017e+00 1.12256682e+00 1.19971335e+00 1.11449075e+00 1.13794196e+00 1.17831385e+00 1.15048933e+00 1.13927579e+00 1.12024271e+00 1.10653484e+00 1.09001982e+00 1.01002538e+00 1.08908594e+00 1.12746859e+00 1.11382556e+00 1.11967635e+00 -1. -1. -1. -1. -1. -1. -1. -1. -1. -1. -1. -1. -1. 9.36976910e-01 8.64067376e-01 7.76269615e-01 7.60682881e-01 7.60020018e-01 -1. 7.40884900e-01 7.39243567e-01 7.47804224e-01 7.46705294e-01 7.45136499e-01 7.50500739e-01 7.57848084e-01 7.60247827e-01 7.68467069e-01 -1. -1. -1. -1. -1. -1. -1. -1. -1. -1. -1. -1. 7.33246744e-01 7.46477008e-01 7.47652411e-01 7.46252060e-01 7.50850260e-01 7.53088951e-01 7.56129503e-01 7.78006911e-01 8.14098120e-01 8.05636823e-01 -1. -1. -1. -1. -1. -1. -1. -1. -1. -1. -1. -1. -2.16781025e+01 -1. -2.17206612e+01 -1. -1. -1. -1. -1. -1. -1. -1. -1. -1. -1. -1. -1. -1. -1. 2.05666617e-01 2.06267759e-01 -1. 1.04059649e+00 1.04451227e+00 1.04918802e+00 1.01545453e+00 1.11613572e+00 1.12572718e+00 1.12385976e+00 1.09175217e+00 9.52400804e-01 1.10999608e+00 1.11745501e+00 1.09499300e+00 1.09461176e+00 1.08342063e+00 1.06518543e+00 -1. -1. -1. -1. -1. -1. -1. -1. -1. -1. -1. -1. -1. -1. -1. -1. -1. -1. -1. -1. -1. -1. -1. -1. -1. 9.48134243e-01 9.54233527e-01 9.42635655e-01 9.32766199e-01 9.17201161e-01 9.54887331e-01 9.27933633e-01 9.34201360e-01 9.54319775e-01 1.01697326e+00 1.01195443e+00 1.08900690e+00 1.09288883e+00 1.04500401e+00 1.06433451e+00 1.03034556e+00 1.01331806e+00 1.00974524e+00 9.51525211e-01 9.75468755e-01 9.36710715e-01 9.57093954e-01 9.58156109e-01 9.63367224e-01 -1. -1. -1. -1. -1. -1. -1. -1. -1. -1. -1. 1.05412805e+00 1.04152560e+00 1.02810931e+00 -1. -1. -1. -1. -1. -1. -1. -1. -1. -1. -1. -1. -1. -1. -1. -1. -1. -1. 1.01308727e+00 9.97109115e-01 1.00465119e+00 1.01216769e+00 1.01247668e+00 1.01178312e+00 1.00394237e+00 1.02143204e+00 -1. 9.79043484e-01 9.98178601e-01 9.94831800e-01 1.00708449e+00 1.00875926e+00 1.00966489e+00 1.01045704e+00 -1. -1. -1. 9.74006891e-01 9.86538529e-01 9.90218937e-01 9.87351120e-01 9.83819425e-01 9.88797247e-01 9.77913439e-01 9.60813820e-01 1.00648153e+00 -1. -1. -1. -1. 1.11703849e+00 1.09413862e+00 1.09075463e+00 1.09236932e+00 1.10779834e+00 1.10074258e+00 -1. -1. -1. -1. -1. -1. -1. -1. -1. -1. -1. -1. 1.02710116e+00 1.03417742e+00 1.03215802e+00 1.02705646e+00 1.04637885e+00 1.04042470e+00 1.01148999e+00 -1. -1. 1.07988334e+00 1.10585523e+00 -1. -1. -1. -1. -1. -1. 9.43512261e-01 9.35937464e-01 9.36247468e-01 9.08926368e-01 -1. -1. -1. -1. -1. -1. -1.
    8.54240716e-01 -1. -1. -1. -1. -1. -1. -1. -1. -1. -1. -1. -1. -1. -1. -1. -1. -1. 8.15669656e-01 8.17040443e-01 8.14948261e-01 8.00044775e-01 8.23645353e-01 8.21249425e-01 8.14339340e-01 7.86074460e-01 8.06535900e-01 7.79573798e-01 7.64619827e-01 8.17934692e-01 8.29549015e-01 8.31515551e-01 8.41321230e-01 -1. -1. -1. -1. -1. -1. -1. -1. -1. -1. -1. -1. -1. -1. -1. -1. -1. -1. -1. -1. -1. -1. -1. -1. -1. -1. -1. -1. -1. -1. -1. -1. -1. -1. -1. -1. -1. -1. -1. 9.50726390e-01 9.20452058e-01 9.12123442e-01 9.41880822e-01 9.23789263e-01 1.00505972e+00 9.93625641e-01 9.86609638e-01 9.97169197e-01 9.86645043e-01 -1. -1. -1. -1. -1. -1. -1. -1. -1. -1. -1. -1. -1. -1. -1. -1. 9.88787472e-01 9.86133635e-01 9.74993944e-01 9.93203759e-01 9.99660611e-01 1.01375186e+00 1.02278185e+00 1.00510681e+00 1.00827551e+00 1.01119518e+00 1.01370752e+00 1.01682067e+00 1.01282418e+00 1.04347992e+00 -1. -1. -1. -1. -1. -1. -1. -1. -1. -1. -1. -1. -1. -1. -1. -1. -1. -1. -1. -1. -1. -1. -1. 1.00588167e+00 9.97748315e-01 1.00087249e+00 1.00288391e+00 9.96211290e-01 9.95309055e-01 9.85897899e-01 9.86561239e-01 9.86275673e-01 -1. -1. 1.00488782e+00 9.91043687e-01 9.89136457e-01 9.97020543e-01 9.85514283e-01 9.87257898e-01 9.91093457e-01 -1. -1. -1. -1. -1. 1.18841565e+00 1.18744743e+00 1.20470142e+00 1.13722229e+00 -1. -1. -1. -1. 1.16186190e+00 1.18508542e+00 1.19751263e+00 1.17833662e+00 1.23677874e+00 1.22381461e+00 1.20118546e+00 1.16231632e+00 1.15652001e+00 1.13129067e+00 1.10421205e+00 1.07650268e+00 1.09943378e+00 1.11763489e+00 1.12940264e+00 1.12057710e+00 -1. -1. -1. -1. -1. -1. -1. -1. -1. -1. -1. -1. 9.40779090e-01 9.50741589e-01 9.44376767e-01 8.12740386e-01 7.87296176e-01 7.35993326e-01 7.77627826e-01 7.48103976e-01 7.39857137e-01 7.45219827e-01 7.48657465e-01 7.48073995e-01 7.47610807e-01 7.62116134e-01 7.76709378e-01 -1. -1. -1. -1. -1. -1. -1. -1. -1. -1. -1. -1. -1. -1. 7.54530191e-01 7.54628420e-01 7.58482039e-01 7.54866362e-01 7.56397247e-01 7.54560649e-01 7.54659235e-01 7.88990915e-01 8.15160334e-01 -1. -1. -1. -1. -1. -1. -1. -1. -1. -1. -1. -1. -2.88146610e+01 -1. -2.89608154e+01 -1. -1. -1. -1. -1. -1. -1. -1. -1. -1. -1. -1. -1. -1. -1. 2.06060857e-01 2.06236064e-01 -1. 1.03483152e+00 -1. 9.94957626e-01 9.88907874e-01 9.87494648e-01 9.90355372e-01 1.09283960e+00 1.12424743e+00 1.11578679e+00 1.11188126e+00 1.10790682e+00 1.13465714e+00 1.11690676e+00 1.09765279e+00 1.06803441e+00 -1. -1. -1. -1. -1. -1. -1. -1. -1. -1. -1. -1. -1. -1. -1. -1. -1. -1. -1. -1. -1. -1. -1. -1. -1. -1. -1. 9.52655077e-01 9.61892068e-01 9.62794960e-01 9.70566928e-01 9.59542871e-01 9.67494190e-01 9.91490304e-01 1.01285660e+00 1.02519763e+00 1.03694546e+00 -1. -1. -1. 1.01081038e+00 9.97385442e-01 1.00376987e+00 9.94014442e-01 9.82433796e-01 9.75433707e-01 9.76806819e-01 9.57561255e-01 -1. -1. 1.05828393e+00 -1. 1.05783021e+00 1.05278373e+00 -1. -1. -1. -1. -1. 1.04471600e+00 1.07684398e+00 1.04405332e+00 1.01619732e+00 1.01727998e+00 -1. -1. -1. -1. -1. -1. -1. -1. -1. -1. -1. 1.05959702e+00 1.08426499e+00 1.07191038e+00 -1. -1. -1. 1.01172304e+00 9.77387488e-01 9.94799018e-01 -1. -1. -1. 9.75417495e-01 9.91990983e-01 9.94150043e-01 9.89325523e-01 9.97323334e-01 1.00044143e+00 1.00709796e+00 1.00571084e+00 1.01451039e+00 1.01725936e+00 -1. -1. 9.90856647e-01 9.93888497e-01 9.85565841e-01 9.92557764e-01 9.88751352e-01 9.96417403e-01 9.97943223e-01 -1. -1. -1. -1. -1. -1. -1. 1.09643030e+00 1.08170223e+00 1.08405685e+00 1.08249557e+00 1.09279346e+00 1.09969151e+00 -1. -1. -1. -1. -1. -1. -1. -1. -1. -1. -1. -1. -1. 1.02159476e+00 1.02395463e+00 1.03083754e+00 1.03706372e+00 1.04813707e+00 1.02150035e+00 -1. -1. -1. -1. -1. -1. -1. -1. -1. 9.31520343e-01 9.41970885e-01 9.41144168e-01 9.35202360e-01 9.23936009e-01 -1. -1. -1. -1. -1. -1. -1.
    -1. -1. -1. -1. -1. -1. -1. -1. -1. -1. -1. -1. -1. -1. -1. -1. -1. -1. -1. 8.13899934e-01 7.97505796e-01 8.28011453e-01 8.28436315e-01 8.33375096e-01 8.30619633e-01 8.22794080e-01 8.01376045e-01 8.04792821e-01 8.09708238e-01 8.09578300e-01 8.22559953e-01 8.21447194e-01 8.61237288e-01 8.55922341e-01 -1. -1. -1. -1. -1. -1. -1. -1. -1. -1. -1. -1. -1. -1. -1. -1. -1. -1. -1. -1. -1. -1. -1. -1. -1. -1. -1. -1. -1. -1. -1. -1. -1. -1. -1. -1. -1. -1. 9.23031271e-01 9.45323288e-01 9.41205323e-01 9.50348973e-01 9.51743782e-01 9.47112679e-01 9.80895698e-01 9.81043279e-01 9.69160676e-01 -1. -1. -1. -1. -1. -1. -1. -1. -1. -1. -1. -1. -1. -1. -1. 1.01080513e+00 1.01544905e+00 1.01293612e+00 9.93329704e-01 1.01250648e+00 1.02855992e+00 1.00792170e+00 1.01534462e+00 1.01616764e+00 1.00608826e+00 1.01297355e+00 1.01565433e+00 1.01122785e+00 1.01901078e+00 1.02211416e+00 1.02868247e+00 -1. -1. -1. -1. -1. -1. -1. -1. -1. -1. -1. -1. -1. -1. -1. -1. -1. -1. -1. -1. -1. -1. -1. 1.00630105e+00 9.96518254e-01 1.00243199e+00 1.00216293e+00 9.99587238e-01 9.95311677e-01 9.83108222e-01 9.89929736e-01 9.85999525e-01 -1. -1. 9.95718062e-01 9.83998716e-01 9.88994300e-01 1.00144100e+00 9.98313785e-01 9.94991004e-01 9.89626050e-01 -1. -1. 1.16175830e+00 1.16054964e+00 1.17858744e+00 -1. -1. -1. -1. 1.15399730e+00 1.18903959e+00 1.15177810e+00 1.14486849e+00 1.16991639e+00 -1. -1. -1. 1.19893169e+00 1.20848644e+00 1.18499267e+00 1.17019677e+00 1.18471873e+00 1.17942286e+00 1.12931061e+00 1.14172363e+00 1.14631224e+00 1.12056875e+00 1.11753249e+00 -1. -1. -1. -1. -1. -1. -1. -1. -1. -1. -1. -1. -1. -1. 9.08661723e-01 9.33287680e-01 7.57947564e-01 7.38028169e-01 7.49223948e-01 7.46224761e-01 7.44639337e-01 7.47826040e-01 7.51085699e-01 7.55474150e-01 7.59656906e-01 7.69748330e-01 7.75750279e-01 7.80384600e-01 -1. -1. -1. -1. -1. -1. -1. -1. -1. -1. -1. -1. -1. 7.43647993e-01 7.50587881e-01 7.48953104e-01 7.48592198e-01 7.53776491e-01 7.60268390e-01 7.57548571e-01 7.96652377e-01 7.88443565e-01 8.26991379e-01 -1. -1. -1. -1. -1. -1. -1. -1. -1. -1. -1. -1. -1. -1. -1. -1. -1. -1. -1. -1. -1. -1. -1. -1. -1. -1. -1. -1. -1. -1. 2.06146508e-01 2.06155047e-01 2.06214607e-01 -1. -1. -1. 9.98505592e-01 1.13404036e+00 1.14018977e+00 1.14239466e+00 1.13838327e+00 1.11266077e+00 1.10843647e+00 1.10495889e+00 1.10017002e+00 1.11141229e+00 1.09668350e+00 1.06518269e+00 -1. -1. -1. -1. -1. -1. -1. -1. -1. -1. -1. -1. -1. -1. -1. -1. -1. -1. -1. -1. -1. -1. -1. 9.42155302e-01 9.45089221e-01 9.39053178e-01 9.68384564e-01 9.63857055e-01 9.73112822e-01 9.82067704e-01 9.74908054e-01 9.65280414e-01 9.90598857e-01 1.05863178e+00 1.02637339e+00 1.01220250e+00 1.01327598e+00 -1. 1.01260757e+00 1.00687504e+00 1.00538921e+00 9.97184575e-01 1.00260592e+00 1.00339842e+00 9.88789439e-01 1.00159276e+00 -1. -1. -1. -1. -1. 1.04392588e+00 1.06862557e+00 1.06131244e+00 1.04488540e+00 -1. 1.05281508e+00 1.02096629e+00 9.91765797e-01 1.04011405e+00 1.05415285e+00 1.04486954e+00 1.03769958e+00 1.03352749e+00 1.04199648e+00 1.02854359e+00 1.04847443e+00 1.03259933e+00 1.03805172e+00 1.01317823e+00 9.93450403e-01 9.86732304e-01 -1. -1. 1.00748849e+00 1.09379554e+00 1.08825076e+00 1.06986880e+00 1.00837398e+00 1.02784765e+00 1.01277554e+00 1.00557768e+00 9.91008699e-01 -1. -1. 9.73590434e-01 9.81550217e-01 9.65628266e-01 9.78970706e-01 1.00837851e+00 9.96349454e-01 1.00782800e+00 1.00247514e+00 1.01121008e+00 9.98118281e-01 1.00211024e+00 1.00394619e+00 9.89132226e-01 9.95852113e-01 1.00339127e+00 9.99445140e-01 9.95706618e-01 9.96711612e-01 9.95502055e-01 9.92637277e-01 9.99182045e-01 9.92934465e-01 -1. -1. -1. -1. -1. -1. 1.10588682e+00 1.09617126e+00 1.08404303e+00 1.08497143e+00 1.08195293e+00 1.08750534e+00 -1. -1. -1. -1. -1. -1. -1. -1. -1. -1. -1. -1. -1. 1.01985335e+00 1.03205538e+00 1.03623915e+00 1.03720939e+00 1.03791487e+00 1.05592299e+00 -1. -1. -1. -1. -1. -1. -1. 9.90416527e-01 9.73177493e-01 9.53594863e-01 9.51322615e-01 9.45983946e-01 9.38010037e-01 9.28919435e-01 -1. -1. -1. -1. -1. -1. -1.
    -1. -1. -1. -1. -1. -1. -1. -1. -1. -1. -1. -1. -1. -1. -1. -1. -1. -1. -1. -1. -1. 8.54558289e-01 8.19869399e-01 8.30906451e-01 8.22139978e-01 8.23318779e-01 7.81229138e-01 8.01921725e-01 8.02490473e-01 8.07270169e-01 8.18436146e-01 8.30929935e-01 8.41184914e-01 9.14264560e-01 -1. -1. -1. -1. -1. -1. -1. -1. -1. -1. -1. -1. -1. -1. -1. -1. -1. -1. -1. -1. -1. -1. -1. -1. -1. -1. -1. -1. -1. -1. -1. -1. -1. 8.45957458e-01 8.39786053e-01 8.36519718e-01 -1. -1. 9.51545060e-01 9.46190953e-01 9.47629929e-01 9.77144897e-01 9.62588012e-01 9.87308681e-01 -1. 9.79879677e-01 9.78236854e-01 9.78620648e-01 -1. -1. -1. -1. -1. -1. -1. -1. -1. -1. -1. -1. -1. -1. 1.00555801e+00 1.03525460e+00 9.87984538e-01 1.03691840e+00 1.03947532e+00 1.07979167e+00 1.02321243e+00 1.01961255e+00 1.00846624e+00 1.00991464e+00 1.01747406e+00 1.03066456e+00 1.02126980e+00 1.02405262e+00 1.01839769e+00 1.04722524e+00 -1. -1. -1. -1. -1. -1. -1. -1. -1. -1. -1. -1. -1. -1. -1. -1. -1. -1. -1. 1.04599738e+00 1.01629424e+00 1.01193297e+00 1.00170135e+00 1.00872254e+00 1.00245357e+00 1.00534821e+00 1.00739217e+00 1.00907660e+00 1.00536561e+00 1.00820243e+00 9.99880433e-01 9.93413985e-01 -1. -1. -1. 9.81894791e-01 9.93408203e-01 1.00250638e+00 1.00088668e+00 9.98919606e-01 -1. -1. -1. 1.13730752e+00 1.13000453e+00 1.14323926e+00 -1. -1. -1. 1.15994704e+00 1.16513717e+00 1.17900586e+00 1.16388202e+00 1.16881120e+00 1.14695370e+00 1.16616797e+00 1.19085228e+00 1.18770099e+00 -1. -1. -1. -1. -1. 1.16272020e+00 1.14484215e+00 1.12691760e+00 1.10829806e+00 1.10296655e+00 1.09722400e+00 -1. -1. -1. -1. -1. -1. -1. -1. -1. -1. -1. 8.12408984e-01 -1. -1. 9.42845404e-01 8.38589787e-01 9.44402397e-01 7.28655338e-01 7.43688524e-01 7.41591632e-01 7.47797132e-01 7.53386199e-01 7.51293838e-01 7.58447886e-01 7.63096690e-01 7.72381842e-01 7.65721679e-01 -1. -1. -1. -1. -1. -1. -1. -1. -1. -1. -1. -1. -1. -1. 7.46599019e-01 7.53242254e-01 7.54256785e-01 7.51917124e-01 7.59630501e-01 7.60652602e-01 7.62831330e-01 7.56037772e-01 7.82749712e-01 -1. -1. -1. -1. -1. -1. -1. -1. -1. -1. -1. -1. -1. -1. -1. -1. -1. -1. -1. -1. -1. -1. -1. -1. -1. -1. -1. -1. -1. -1. -1. -1. -1. -1. -1. -1. -1. 1.02850795e+00 1.01010573e+00 1.15572083e+00 9.74303186e-01 1.15798962e+00 1.15250123e+00 1.11698771e+00 1.11819124e+00 1.11256385e+00 1.08400273e+00 1.11747122e+00 1.09546149e+00 -1. -1. -1. -1. -1. -1. -1. -1. -1. -1. -1. -1. -1. -1. -1. -1. -1. -1. -1. -1. -1. -1. -1. 9.41177011e-01 -1. 9.48629439e-01 9.52108264e-01 9.75788832e-01 9.82405782e-01 9.83315229e-01 9.89841521e-01 -1. 9.95922685e-01 1.02094865e+00 1.04856300e+00 1.03853381e+00 1.02567208e+00 1.01447785e+00 1.01581407e+00 1.00821900e+00 1.00825763e+00 1.00626147e+00 1.01251543e+00 1.00624061e+00 1.00407386e+00 1.01724052e+00 -1. -1. -1. -1. 1.02752221e+00 1.02855003e+00 1.03691077e+00 1.02103090e+00 1.04070807e+00 1.03923440e+00 1.03062654e+00 1.01007640e+00 1.02549791e+00 1.05762911e+00 1.07159734e+00 1.03315282e+00 1.04039550e+00 1.03993881e+00 1.04917705e+00 1.03094494e+00 1.02337289e+00 1.03188920e+00 1.01653314e+00 1.00408602e+00 9.90454197e-01 9.89255905e-01 9.83245969e-01 9.80581939e-01 9.34321225e-01 9.94263470e-01 9.46525514e-01 9.49811935e-01 9.68898594e-01 9.89567220e-01 9.89997685e-01 9.86232638e-01 9.83020246e-01 9.68836427e-01 -1. 9.79437172e-01 9.55754876e-01 9.54899609e-01 9.65976894e-01 9.84228730e-01 1.00156081e+00 9.97666478e-01 9.95549083e-01 1.00314438e+00 1.01308346e+00 9.97689486e-01 9.96988952e-01 9.69622791e-01 9.77253139e-01 9.47572052e-01 9.98095095e-01 9.95661795e-01 9.97267962e-01 9.97217655e-01 9.97344315e-01 9.93582428e-01 9.83564496e-01 9.83915627e-01 -1. -1. -1. -1. 1.11621630e+00 1.10762358e+00 1.10740268e+00 1.10983562e+00 1.09901214e+00 1.10511100e+00 1.11975443e+00 -1. -1. -1. -1. -1. -1. -1. -1. -1. -1. -1. -1. 9.75752652e-01 1.02014863e+00 1.02572477e+00 1.03015172e+00 1.03668332e+00 1.05060637e+00 1.08064365e+00 1.16347539e+00 1.05419493e+00 -1. -1. -1. -1. 1.01254416e+00 9.98094022e-01 9.95466113e-01 9.66443658e-01 9.60199356e-01 9.38590765e-01 9.40734982e-01 9.49136317e-01 9.44605410e-01 9.31430340e-01 -1. -1. -1. -1. -1.
    -1. -1. -1. -1. -1. -1. -1. -1. -1. -1. -1. -1. -1. -1. -1. -1. -1. -1. -1. -1. -1. 8.56432378e-01 8.30856979e-01 8.02963436e-01 8.45806301e-01 8.00588608e-01 8.13120663e-01 8.02256465e-01 7.98735797e-01 8.07850778e-01 8.31099510e-01 8.33602011e-01 8.30832899e-01 -1. 1.24929380e+00 1.23673165e+00 1.21995664e+00 -1. -1. -1. -1. -1. -1. -1. -1. -1. -1. -1. -1. -1. -1. -1. -1. -1. -1. -1. -1. -1. -1. -1. -1. -1. -1. -1. -1. 9.61378694e-01 9.32323754e-01 9.59652424e-01 8.92529964e-01 8.44424486e-01 -1. 9.38423395e-01 9.39532459e-01 9.49405611e-01 9.49281275e-01 9.37326491e-01 9.49253500e-01 9.83679831e-01 9.75139022e-01 -1. -1. 9.79489326e-01 -1. -1. -1. -1. -1. -1. -1. -1. -1. -1. -1. -1. 1.00750530e+00 1.01183653e+00 1.01217127e+00 1.01522291e+00 1.01039600e+00 1.03179801e+00 1.03236830e+00 9.90489721e-01 1.03461611e+00 1.02133012e+00 -1. 1.00372899e+00 1.00613487e+00 1.00350928e+00 1.00468135e+00 1.00921905e+00 1.01380801e+00 1.02297056e+00 -1. -1. -1. -1. -1. -1. -1. -1. -1. -1. -1. -1. -1. -1. -1. -1. -1. -1. 1.03384519e+00 1.02704251e+00 1.01374769e+00 9.71972883e-01 1.00792003e+00 1.00459731e+00 1.00373197e+00 1.00451612e+00 1.00355792e+00 1.00157201e+00 1.00619936e+00 1.00275719e+00 9.99645591e-01 1.00018322e+00 -1. -1. -1. 1.00841427e+00 1.00831401e+00 1.00105214e+00 1.00202954e+00 1.00346696e+00 -1. -1. -1. 1.13235569e+00 1.11620760e+00 1.12534881e+00 1.10908926e+00 -1. -1. 1.15532088e+00 1.15565836e+00 1.15914297e+00 1.15632176e+00 1.15524650e+00 1.15522707e+00 1.16422296e+00 1.17968166e+00 -1. -1. -1. -1. -1. -1. -1. 1.16830254e+00 1.15534246e+00 1.07479620e+00 1.07708991e+00 1.08549416e+00 -1. -1. -1. -1. -1. -1. -1. -1. -1. -1. -1. -1. -1. -1. -1. 7.33157575e-01 7.77889371e-01 7.70045519e-01 7.66761780e-01 7.43871570e-01 7.34086156e-01 7.46027172e-01 7.49940813e-01 7.53841043e-01 7.56571114e-01 7.69346237e-01 7.58067548e-01 -1. -1. -1. -1. -1. -1. -1. -1. -1. -1. -1. -1. -1. -1. 7.61224627e-01 7.57978022e-01 7.62152195e-01 7.63754249e-01 7.57648349e-01 7.56353498e-01 7.61488557e-01 7.82443047e-01 -1. -1. 8.36769283e-01 -1. -1. -1. -1. -1. -1. -1. -1. -1. -1. -1. -1. -1. -1. -1. -1. -1. -1. -1. -1. -1. -1. -1. -1. -1. -1. -1. -1. -1. -1. -1. -1. -1. -1. -1. 1.02362657e+00 1.00710213e+00 1.05182827e+00 9.76457536e-01 1.16065860e+00 1.16364598e+00 9.66586411e-01 9.61612582e-01 9.49235559e-01 1.12390256e+00 1.13010669e+00 1.10670078e+00 -1. -1. -1. -1. -1. -1. -1. -1. -1. -1. -1. -1. -1. -1. -1. -1. -1. -1. -1. -1. -1. -1. -1. -1. -1. 9.35188830e-01 9.39446807e-01 9.88527060e-01 9.85839486e-01 9.84228611e-01 9.82721865e-01 9.87508595e-01 9.78518963e-01 1.01229751e+00 1.03181458e+00 1.03735888e+00 1.03012526e+00 1.02506328e+00 1.01903319e+00 1.00445247e+00 9.99128282e-01 1.00299406e+00 1.01739812e+00 1.01489449e+00 1.00785029e+00 -1. -1. -1. -1. -1. 1.01644158e+00 1.01863563e+00 1.01672852e+00 1.03323758e+00 1.03700101e+00 1.03706264e+00 1.02922606e+00 1.03096187e+00 1.03842402e+00 1.04900670e+00 1.03946614e+00 1.04421377e+00 1.03365695e+00 1.03387189e+00 1.05907643e+00 1.02045965e+00 9.96780097e-01 9.97233689e-01 1.00739980e+00 1.01254141e+00 9.65054750e-01 9.87769663e-01 9.86061692e-01 9.92718577e-01 9.88735974e-01 9.75034535e-01 9.56908166e-01 9.85526204e-01 9.51945245e-01 9.78287041e-01 9.90871727e-01 9.73350942e-01 9.66383636e-01 9.74568129e-01 9.59745646e-01 9.36484635e-01 9.62808847e-01 9.60809767e-01 9.78837013e-01 9.87765908e-01 9.67589259e-01 1.00099456e+00 1.00972080e+00 1.00591493e+00 9.94324446e-01 -1. 9.50943887e-01 9.28820908e-01 9.28222656e-01 9.21700358e-01 9.79135692e-01 9.83998716e-01 9.79277074e-01 9.91598010e-01 9.84940588e-01 9.91938055e-01 9.79505181e-01 9.79810357e-01 -1. -1. -1. 1.11435473e+00 1.11560071e+00 1.15962017e+00 1.15251625e+00 1.14638472e+00 1.13664532e+00 1.13980913e+00 1.14183342e+00 1.13018417e+00 -1. -1. -1. -1. -1. -1. -1. -1. -1. -1. 1.00282562e+00 1.00986767e+00 1.02655375e+00 1.01992774e+00 1.02695549e+00 1.02630246e+00 1.04041588e+00 1.07051802e+00 1.14775586e+00 1.07593048e+00 -1. 1.09009659e+00 1.04721868e+00 1.00859737e+00 1.00032103e+00 9.58274364e-01 9.61714745e-01 9.23668623e-01 9.28167582e-01 9.23192322e-01 9.33944762e-01 9.39234316e-01 9.56643283e-01 9.38000739e-01 -1. -1. -1. -1. -1.
    -1. -1. -1. -1. -1. -1. -1. -1. -1. -1. -1. -1. -1. -1. -1. -1. -1. -1. -1. -1. -1. 8.54624510e-01 8.36523652e-01 8.12709689e-01 8.00710142e-01 -1. 8.00647140e-01 7.97883213e-01 7.97858536e-01 7.94473171e-01 -1. -1. -1. -1. 1.25223780e+00 1.23905742e+00 1.22322905e+00 -1. -1. -1. -1. -1. -1. -1. -1. -1. -1. -1. -1. -1. -1. -1. -1. -1. -1. -1. -1. -1. -1. -1. -1. -1. -1. -1. -1. 9.26364660e-01 9.70202088e-01 9.34860706e-01 9.52613711e-01 8.54395330e-01 -1. 9.36983883e-01 9.44156349e-01 9.52772677e-01 9.50380623e-01 9.55757737e-01 9.59525526e-01 9.73109543e-01 9.80822742e-01 9.84336734e-01 -1. -1. -1. -1. -1. -1. -1. -1. -1. -1. -1. -1. -1. -1. -1. -1. -1. -1. 1.01071572e+00 1.01340044e+00 1.00401795e+00 1.01254237e+00 1.01359153e+00 1.01484764e+00 1.01073921e+00 1.00603878e+00 1.00564313e+00 1.02035224e+00 1.00908220e+00 1.01118636e+00 1.02339947e+00 1.01866984e+00 -1. -1. -1. -1. -1. -1. -1. -1. -1. -1. -1. -1. -1. -1. -1. -1. -1. -1. 1.02708316e+00 1.02285230e+00 1.06608534e+00 1.03221941e+00 9.85070705e-01 9.81716692e-01 1.00068069e+00 1.00157464e+00 1.00152957e+00 9.99255598e-01 9.98974562e-01 9.98964429e-01 9.92975831e-01 9.93917704e-01 9.83716488e-01 9.99409199e-01 9.84228492e-01 1.00599217e+00 1.01195848e+00 1.01021826e+00 1.00776911e+00 -1. -1. -1. -1. 1.12544250e+00 1.12558281e+00 1.13157463e+00 1.12441397e+00 -1. -1. 1.14939010e+00 1.15727735e+00 1.16153157e+00 1.14784086e+00 1.15104699e+00 1.14152801e+00 1.15429711e+00 1.16065586e+00 1.15957630e+00 -1. -1. -1. -1. -1. -1. -1. 1.12363589e+00 1.13812613e+00 1.13991570e+00 1.08376050e+00 1.05890536e+00 -1. -1. -1. -1. -1. -1. -1. -1. 8.39917362e-01 8.31146240e-01 8.36973190e-01 7.74475396e-01 7.63110995e-01 7.46784687e-01 -1. 7.30497062e-01 7.71589875e-01 7.70348132e-01 7.60841787e-01 7.47151196e-01 7.44747877e-01 7.50104725e-01 7.55046546e-01 7.55175710e-01 7.41640091e-01 7.36760139e-01 -1. -1. -1. -1. -1. -1. -1. -1. -1. -1. -1. -1. -1. 7.46010840e-01 7.65039206e-01 7.64445424e-01 7.62667298e-01 7.63107777e-01 7.63127148e-01 7.62407959e-01 7.81025171e-01 8.31709981e-01 8.29269528e-01 8.30904484e-01 8.58634055e-01 -1. -1. -1. -1. -1. -1. -1. -1. -1. -1. -1. -1. -1. -1. -1. -1. -1. -1. -1. -1. -1. -1. -1. -1. -1. -1. -1. -1. -1. -1. -1. -1. -1. -1. 1.04541409e+00 1.03799582e+00 1.00662339e+00 1.01614666e+00 1.14783955e+00 9.75266218e-01 9.72857058e-01 9.73579466e-01 9.62822258e-01 9.53757823e-01 9.57115054e-01 1.03125918e+00 -1. -1. -1. -1. -1. -1. -1. -1. -1. -1. -1. -1. -1. -1. -1. -1. -1. -1. -1. -1. -1. -1. -1. -1. -1. -1. -1. -1. 9.75514114e-01 9.82218325e-01 9.88594651e-01 9.88745034e-01 9.86802757e-01 1.00105035e+00 1.02232957e+00 1.01419950e+00 1.02462637e+00 1.03120804e+00 1.04552543e+00 1.03483129e+00 1.02525425e+00 1.00326288e+00 1.01110303e+00 1.02765167e+00 1.01565588e+00 -1. -1. -1. -1. -1. -1. 1.02208161e+00 1.03094411e+00 1.02708519e+00 1.03460729e+00 1.02900052e+00 1.04779506e+00 1.04997337e+00 1.04150498e+00 1.06500542e+00 1.06394207e+00 1.02104115e+00 1.01405609e+00 1.05586481e+00 1.04521751e+00 1.00937653e+00 1.01141036e+00 9.93778765e-01 9.98364985e-01 1.00590944e+00 1.00117135e+00 1.00239837e+00 9.92819846e-01 9.81698275e-01 9.83438551e-01 9.80444312e-01 9.76402879e-01 9.77587402e-01 9.77524877e-01 9.78726506e-01 9.75995004e-01 9.71495032e-01 9.70017076e-01 9.66879487e-01 9.60307181e-01 9.55783427e-01 9.51250136e-01 9.86173868e-01 1.00835693e+00 1.00845456e+00 1.01455379e+00 9.95501101e-01 1.01775479e+00 1.01452816e+00 1.01546001e+00 1.00615776e+00 -1. 9.62440372e-01 9.48738992e-01 9.50634420e-01 9.37958479e-01 9.67658579e-01 9.86948371e-01 9.87335265e-01 9.91373122e-01 1.00160491e+00 9.90791798e-01 9.87042665e-01 9.60258067e-01 -1. -1. 1.10597336e+00 1.11771035e+00 1.09176350e+00 1.10922217e+00 1.10097575e+00 1.10391521e+00 1.12239778e+00 1.08789134e+00 1.07928193e+00 1.06764829e+00 -1. -1. -1. -1. -1. -1. -1. -1. -1. 1.00663614e+00 1.00945294e+00 1.00235403e+00 1.02472377e+00 1.02057552e+00 1.02361131e+00 1.03146553e+00 1.03376031e+00 1.03663766e+00 1.09209621e+00 1.15547431e+00 1.14588058e+00 1.13421094e+00 1.07310700e+00 9.49694753e-01 9.84647155e-01 9.63673711e-01 9.36137021e-01 9.46510792e-01 9.57410216e-01 9.46081042e-01 9.53314841e-01 9.41537857e-01 9.46902692e-01 9.26175356e-01 -1. -1. -1. -1. -1.
    -1. -1. -1. -1. -1. -1. -1. -1. -1. 8.55757117e-01 -1. -1. -1. -1. -1. -1. -1. -1. -1. -1. -1. -1. 8.52365315e-01 8.57691944e-01 -1. -1. 8.12713087e-01 8.08500886e-01 8.28111470e-01 -1. -1. -1. -1. 1.23972869e+00 1.24332523e+00 1.24330091e+00 -1. -1. -1. -1. -1. -1. -1. -1. -1. -1. -1. -1. -1. -1. -1. -1. -1. -1. -1. -1. -1. -1. -1. -1. -1. -1. 9.25859749e-01 -1. 8.87099564e-01 8.82365108e-01 8.87524664e-01 9.50018048e-01 9.32022929e-01 9.21113372e-01 -1. 9.50101972e-01 9.49716032e-01 9.54799771e-01 9.52610791e-01 9.59205627e-01 9.61730182e-01 9.64754760e-01 9.63225663e-01 9.69368339e-01 9.83535886e-01 9.58757877e-01 9.47796464e-01 -1. -1. -1. -1. -1. -1. -1. -1. -1. -1. -1. 1.00747919e+00 1.03034914e+00 1.01268733e+00 -1. 1.03766179e+00 1.01896334e+00 1.01640689e+00 1.01458585e+00 1.00173569e+00 -1. 1.00929523e+00 1.01604700e+00 1.01646018e+00 1.02930963e+00 1.02444851e+00 1.03258765e+00 1.00286722e+00 -1. -1. -1. -1. -1. -1. 1.06056786e+00 1.04950249e+00 -1. -1. -1. -1. -1. -1. -1. -1. -1. -1. -1. -1. 1.01563787e+00 9.71326768e-01 9.77257907e-01 -1. 1.01589215e+00 1.00446892e+00 1.00544131e+00 1.00785697e+00 1.01242578e+00 1.00982010e+00 1.01397979e+00 1.02166069e+00 1.00484383e+00 1.00369179e+00 1.01002347e+00 1.00708365e+00 1.00786662e+00 1.01010549e+00 1.01665723e+00 1.01012552e+00 -1. -1. -1. -1. 1.13750398e+00 1.13439369e+00 1.12929046e+00 1.11995041e+00 -1. -1. 1.13645732e+00 1.15260565e+00 1.11879504e+00 1.14470506e+00 1.19661808e+00 1.16313279e+00 1.15802622e+00 1.17484534e+00 1.16028261e+00 -1. -1. -1. -1. -1. -1. -1. -1. 1.08974636e+00 1.05472350e+00 1.05777657e+00 1.05267847e+00 -1. -1. 9.79129612e-01 -1. 9.31949496e-01 9.36501980e-01 -1. -1. 9.33922350e-01 1.01991260e+00 1.01511037e+00 7.79478908e-01 7.61375010e-01 7.53925502e-01 7.34388292e-01 7.70566761e-01 7.75299370e-01 7.37929583e-01 7.43421316e-01 7.42607653e-01 7.46918976e-01 7.50083864e-01 7.50862718e-01 7.50267804e-01 7.50634849e-01 7.42873728e-01 -1. -1. -1. 8.39442253e-01 8.35784435e-01 -1. 8.18661094e-01 8.00927043e-01 7.82759845e-01 -1. -1. -1. 7.35729635e-01 7.61402190e-01 7.62787223e-01 7.66693473e-01 7.58469284e-01 7.61135221e-01 7.61206329e-01 7.72373021e-01 7.72881508e-01 -1. 8.23529303e-01 8.28961194e-01 8.91292214e-01 8.80259573e-01 -1. -1. -1. -1. -1. -1. -1. -1. -1. -1. -1. -1. -1. -1. -1. -1. -1. -1. -1. -1. -1. -1. -1. -1. -1. -1. -1. -1. -1. -1. -1. -1. -1. 1.06023741e+00 1.01475286e+00 1.09987283e+00 1.10690427e+00 1.09353209e+00 1.10845542e+00 1.10723925e+00 1.10086954e+00 9.62480903e-01 9.56665576e-01 9.49734211e-01 -1. -1. -1. -1. -1. -1. -1. -1. -1. -1. -1. -1. -1. -1. -1. -1. -1. -1. -1. -1. -1. -1. -1. -1. -1. -1. -1. -1. -1. -1. 9.84866023e-01 9.82999027e-01 9.95763540e-01 9.94010448e-01 1.01016927e+00 1.01434171e+00 1.02254140e+00 1.01545262e+00 1.01366210e+00 -1. -1. -1. -1. -1. -1. -1. -1. -1. -1. -1. -1. -1. 1.02505827e+00 1.01812267e+00 1.01953793e+00 1.02471459e+00 1.02960527e+00 1.02895725e+00 1.03977907e+00 1.04041719e+00 1.02071881e+00 9.69041526e-01 9.92585361e-01 9.97125804e-01 9.43505466e-01 9.64127779e-01 9.89851475e-01 1.01109099e+00 1.01477647e+00 1.01923978e+00 1.01892519e+00 9.97779548e-01 9.94948030e-01 9.99475896e-01 9.95212913e-01 9.94977891e-01 9.93614256e-01 9.89079893e-01 9.84992266e-01 9.87906098e-01 9.80563939e-01 9.81216729e-01 9.76845503e-01 9.75866854e-01 9.75747406e-01 9.73406076e-01 9.66858089e-01 9.66042876e-01 9.53412473e-01 9.48789358e-01 9.76118803e-01 9.64623511e-01 9.91277933e-01 1.03555691e+00 1.00929940e+00 1.01271224e+00 9.73817706e-01 -1. 9.73627925e-01 9.58820224e-01 9.50760245e-01 9.51249063e-01 -1. 9.83855069e-01 9.87813592e-01 9.95216012e-01 9.91869807e-01 9.95961130e-01 -1. -1. -1. -1. 1.09500062e+00 1.07171535e+00 1.10244465e+00 1.10179210e+00 1.10807693e+00 1.10504830e+00 1.11594069e+00 1.10580194e+00 1.10486424e+00 1.09911990e+00 -1. -1. -1. -1. -1. -1. -1. -1. -1. 1.01354408e+00 1.01376605e+00 1.01822722e+00 1.02235699e+00 1.03179288e+00 1.03213263e+00 1.03641462e+00 1.03628778e+00 1.04581988e+00 1.13516080e+00 1.13208926e+00 1.09504795e+00 1.07951331e+00 1.07044458e+00 1.05875957e+00 9.96826530e-01 -1. -1. 9.48428154e-01 9.54380035e-01 9.46942627e-01 9.44918871e-01 9.29940760e-01 9.30349410e-01 -1. -1. -1. -1. -1. -1.
    -1. -1. -1. -1. -1. -1. -1. 1.00092947e+00 9.88981366e-01 8.39088798e-01 8.07544708e-01 7.85759628e-01 7.57881403e-01 -1. -1. -1. 7.43101060e-01 7.42535591e-01 -1. -1. -1. -1. -1. 8.44354331e-01 -1. -1. 8.48581791e-01 8.47320437e-01 8.49330842e-01 -1. -1. -1. -1. -1. -1. -1. 1.25022423e+00 -1. -1. -1. -1. -1. -1. -1. -1. -1. -1. -1. -1. -1. -1. -1. -1. -1. -1. -1. -1. -1. -1. -1. -1. -1. 9.33328569e-01 -1. 9.58785951e-01 9.41648006e-01 9.21076059e-01 9.32133734e-01 9.46364164e-01 9.30376530e-01 -1. 9.27764297e-01 9.40404475e-01 9.11376297e-01 9.46545482e-01 9.72946763e-01 9.87099707e-01 9.65083063e-01 9.70889568e-01 9.52437222e-01 9.37625289e-01 9.47831988e-01 9.39764202e-01 -1. -1. -1. -1. -1. -1. -1. -1. 9.47285831e-01 9.48632658e-01 -1. 9.81981218e-01 1.00706041e+00 1.03772855e+00 1.03670132e+00 1.04135573e+00 1.02979732e+00 1.02880204e+00 -1. -1. -1. 1.00466049e+00 1.00582647e+00 1.00650299e+00 1.01015508e+00 1.01613760e+00 1.02229190e+00 1.01160729e+00 1.00022697e+00 -1. -1. -1. -1. 1.06416166e+00 1.06496644e+00 1.05828345e+00 -1. -1. -1. -1. -1. -1. -1. -1. -1. -1. -1. -1. -1. -1. -1. -1. 1.00454986e+00 1.00877786e+00 1.00770330e+00 1.01748717e+00 1.01449120e+00 1.00612831e+00 1.00807536e+00 1.00559604e+00 1.01294053e+00 1.00936043e+00 9.94864285e-01 1.04158199e+00 1.01438880e+00 1.01345968e+00 1.01451278e+00 -1. -1. -1. -1. -1. 1.15772426e+00 1.13298893e+00 1.13529336e+00 1.17345572e+00 -1. -1. 1.17628241e+00 1.14448643e+00 1.16163087e+00 1.15406156e+00 1.16558981e+00 1.08945596e+00 1.03689361e+00 1.16886771e+00 1.15424585e+00 -1. 1.11769128e+00 1.10332763e+00 1.09641218e+00 1.08864069e+00 -1. -1. -1. -1. 1.04848087e+00 1.05573237e+00 1.05840278e+00 -1. 1.03229713e+00 9.80147481e-01 9.34740901e-01 9.39985693e-01 9.34149861e-01 9.23005581e-01 -1. 1.03811204e+00 1.01814449e+00 8.36448789e-01 8.43114972e-01 9.72761512e-01 7.57337451e-01 7.42678463e-01 7.40054190e-01 7.46295393e-01 7.66805530e-01 7.65014529e-01 7.43734658e-01 7.45502472e-01 7.48690963e-01 7.89284706e-01 7.89077818e-01 7.88908362e-01 7.41259873e-01 -1. -1. -1. 8.45909059e-01 -1. 8.18728983e-01 8.40675235e-01 7.66057253e-01 7.82893836e-01 -1. 7.21873999e-01 7.53918409e-01 7.56501734e-01 7.79277742e-01 7.61574626e-01 7.67516613e-01 7.61560380e-01 7.66905069e-01 7.69442797e-01 7.64487147e-01 8.10480714e-01 9.36679542e-01 9.32776749e-01 8.30558121e-01 8.91732335e-01 9.26604509e-01 -1. -1. -1. -1. -1. -1. -1. -1. -1. -1. -1. -1. -1. -1. -1. -1. -1. -1. -1. -1. -1. -1. -1. -1. -1. -1. -1. -1. -1. -1. -1. -1. 1.15178657e+00 1.03843403e+00 1.05737936e+00 1.10547316e+00 1.07896638e+00 1.09152186e+00 1.08835435e+00 9.62252319e-01 1.09693682e+00 9.52174425e-01 9.51399148e-01 9.45369005e-01 -1. -1. 1.01467609e+00 1.01600611e+00 1.01646352e+00 -1. -1. -1. -1. -1. -1. -1. -1. -1. -1. -1. -1. -1. -1. -1. -1. -1. -1. -1. -1. -1. -1. -1. -1. -1. -1. 9.84505832e-01 9.88481283e-01 9.91781831e-01 9.95845616e-01 1.01061165e+00 1.02291715e+00 1.03325188e+00 1.02485967e+00 -1. -1. -1. -1. -1. -1. -1. -1. -1. -1. -1. -1. -1. 1.02634001e+00 1.01499295e+00 1.00767243e+00 9.95986640e-01 1.01581669e+00 1.03813899e+00 1.04379439e+00 1.04254472e+00 1.01857352e+00 9.88811612e-01 9.02602613e-01 1.05296588e+00 9.37635243e-01 9.23361003e-01 1.00189495e+00 9.38876927e-01 9.83059764e-01 1.00028658e+00 9.83561695e-01 9.75873113e-01 1.00035596e+00 9.96123374e-01 9.92015719e-01 9.91552234e-01 9.91352201e-01 9.86532450e-01 9.84889686e-01 9.80129838e-01 9.78291750e-01 9.76066589e-01 9.73386049e-01 9.70620692e-01 9.70746517e-01 9.71464455e-01 9.72285509e-01 9.70529974e-01 9.80468512e-01 9.69630718e-01 9.68437314e-01 9.56560194e-01 9.77517784e-01 9.43029523e-01 9.93382096e-01 -1. -1. -1. -1. -1. -1. -1. -1. 9.85271215e-01 9.80444312e-01 9.87991393e-01 9.91505325e-01 9.95535016e-01 -1. -1. -1. -1. -1. -1. 1.09364438e+00 1.08217263e+00 1.09332657e+00 1.08742440e+00 1.10165262e+00 1.10820329e+00 1.11528146e+00 -1. -1. -1. -1. -1. -1. -1. -1. -1. -1. -1. -1. 1.02601004e+00 1.02898467e+00 1.03072464e+00 1.02746701e+00 1.03353822e+00 1.02411044e+00 1.02208614e+00 1.02684081e+00 1.07018137e+00 1.08042741e+00 1.07606995e+00 1.05854893e+00 1.05510020e+00 9.78543580e-01 9.62218583e-01 -1. -1. 9.26065326e-01 9.09744620e-01 9.09246385e-01 9.23714221e-01 9.24390376e-01 -1. -1. -1. -1. -1. -1.
    -1. -1. -1. 9.14045811e-01 9.35907364e-01 9.95597064e-01 1.00532389e+00 1.00086570e+00 7.87078261e-01 7.89907515e-01 7.95793355e-01 7.89799273e-01 7.55341828e-01 7.41671026e-01 -1. -1. 7.41865218e-01 7.41681099e-01 -1. -1. -1. -1. -1. -1. -1. -1. 8.50313187e-01 8.55017543e-01 8.56345594e-01 8.56706619e-01 8.52409005e-01 8.61117661e-01 8.52266073e-01 -1. -1. -1. -1. -1. -1. -1. -1. -1. -1. -1. -1. -1. -1. -1. -1. -1. -1. -1. -1. -1. -1. -1. -1. -1. -1. -1. -1. -1. -1. -1. 9.50574934e-01 9.50426757e-01 9.37058091e-01 9.37144995e-01 9.33139503e-01 9.27686930e-01 9.17198241e-01 9.53251123e-01 9.50967848e-01 9.12424684e-01 9.57330763e-01 9.95837927e-01 9.95529950e-01 9.95088279e-01 -1. 1.00098562e+00 9.78138506e-01 9.38924611e-01 9.50685561e-01 9.15707052e-01 -1. -1. -1. -1. -1. 9.24667358e-01 9.38902974e-01 9.52320039e-01 -1. 9.45922077e-01 9.52879488e-01 9.70218062e-01 1.00602269e+00 1.06121814e+00 1.08189893e+00 1.04526174e+00 1.05901468e+00 -1. 1.02025414e+00 1.00091445e+00 9.97730434e-01 1.00401080e+00 1.00049257e+00 1.00398743e+00 1.00570333e+00 1.00699735e+00 1.00350070e+00 9.99655247e-01 -1. 9.94781673e-01 9.58061159e-01 1.08248115e+00 1.06303883e+00 1.06008005e+00 1.09120595e+00 -1. -1. 1.08616161e+00 1.08888209e+00 1.09929359e+00 -1. -1. 1.09105766e+00 1.11360526e+00 1.10760391e+00 1.11220706e+00 1.06355047e+00 1.03218901e+00 1.05134070e+00 -1. -1. 1.00787246e+00 1.00766563e+00 1.00933409e+00 1.00710034e+00 1.00827050e+00 1.00399017e+00 1.00429010e+00 9.99614596e-01 9.98973012e-01 9.96937752e-01 9.97988224e-01 1.03090537e+00 1.00709236e+00 1.01194656e+00 1.00986743e+00 1.01421869e+00 1.00379813e+00 -1. -1. -1. -1. 1.32283258e+00 1.15245366e+00 1.37495315e+00 -1. -1. -1. -1. -1. 1.15298748e+00 1.13855171e+00 1.11957419e+00 1.10698497e+00 1.05933750e+00 1.15336668e+00 -1. 1.10564160e+00 1.09988523e+00 1.08486867e+00 1.07387936e+00 -1. -1. -1. -1. 1.05667806e+00 1.06956339e+00 1.06556845e+00 1.06092346e+00 1.07211173e+00 9.69623983e-01 9.48756516e-01 9.42904234e-01 9.36008573e-01 9.35990274e-01 -1. -1. 1.02370882e+00 9.74405944e-01 1.01639962e+00 8.44477057e-01 7.57416487e-01 7.51008987e-01 7.49797881e-01 7.57124305e-01 7.54544735e-01 7.56568491e-01 7.72870541e-01 7.50491500e-01 7.58346856e-01 7.46944845e-01 7.67880440e-01 7.86811709e-01 7.78643429e-01 -1. -1. -1. 8.16708982e-01 8.38593602e-01 8.41445386e-01 8.47453535e-01 7.59411812e-01 8.34060609e-01 7.45699406e-01 7.72066236e-01 7.61928856e-01 7.59630978e-01 7.70479977e-01 7.74347126e-01 7.65563428e-01 7.70499945e-01 7.71114469e-01 7.69256830e-01 7.67898262e-01 7.74228394e-01 9.37467039e-01 8.85084033e-01 9.16836560e-01 8.96282315e-01 8.84082496e-01 8.99388373e-01 9.29666519e-01 9.56941307e-01 -1. -1. -1. -1. -1. -1. -1. -1. -1. -1. -1. -1. -1. -1. -1. -1. -1. -1. -1. -1. -1. -1. 1.25081825e+00 1.24326491e+00 1.21445286e+00 1.16184378e+00 -1. 1.13434005e+00 1.18437600e+00 1.15434039e+00 1.07749057e+00 1.00619233e+00 1.05456293e+00 1.06469882e+00 1.09617877e+00 1.09638226e+00 1.08971214e+00 9.55309629e-01 9.72349405e-01 9.50391769e-01 9.48163152e-01 -1. -1. 1.01469433e+00 1.01516402e+00 1.01511168e+00 -1. -1. -1. -1. -1. -1. -1. -1. -1. -1. -1. -1. -1. -1. -1. -1. -1. -1. -1. -1. -1. -1. -1. -1. -1. -1. -1. -1. -1. 9.64153647e-01 9.99630690e-01 1.02619994e+00 1.05358589e+00 1.01078331e+00 -1. -1. -1. -1. -1. -1. -1. -1. -1. -1. -1. -1. -1. -1. 1.01927948e+00 9.90714192e-01 8.95964682e-01 9.13227975e-01 1.01221585e+00 1.08724308e+00 1.05239463e+00 1.06819177e+00 9.67020869e-01 9.92831111e-01 9.71446216e-01 9.63718295e-01 9.42558646e-01 9.76432979e-01 9.70937073e-01 9.89262044e-01 1.03383076e+00 9.96507108e-01 9.83725607e-01 9.62737501e-01 9.85565007e-01 9.92040455e-01 9.80393350e-01 9.83865678e-01 9.88114834e-01 9.79692042e-01 9.81108010e-01 9.77650881e-01 9.66348886e-01 9.71516848e-01 9.72294867e-01 9.78637755e-01 9.79588807e-01 9.79080975e-01 9.76615310e-01 9.72520173e-01 -1. -1. -1. 9.73282278e-01 9.82677519e-01 9.97843742e-01 -1. -1. -1. -1. -1. -1. -1. 9.73529398e-01 9.77807403e-01 9.82814848e-01 9.87391055e-01 9.86200750e-01 9.91605282e-01 9.92898941e-01 -1. -1. -1. -1. -1. -1. 1.08589673e+00 1.08980644e+00 1.08271348e+00 1.07765150e+00 1.10757136e+00 1.10891938e+00 -1. -1. -1. -1. -1. -1. -1. -1. -1. -1. -1. -1. 1.03332925e+00 1.03807366e+00 1.02936327e+00 1.03235626e+00 1.02605188e+00 1.01517797e+00 1.01513779e+00 1.03015232e+00 1.06245589e+00 1.03676879e+00 1.07137525e+00 1.05223894e+00 1.03740251e+00 9.91537333e-01 9.50384974e-01 -1. -1. 8.91312480e-01 8.91407490e-01 8.95557761e-01 8.90299559e-01 8.93659770e-01 -1. -1. -1. -1. -1. -1.
    -1. -1. -1. 8.99564981e-01 8.81540120e-01 9.35851395e-01 9.81749654e-01 8.93417895e-01 9.95586157e-01 7.34048009e-01 7.72655308e-01 7.96366274e-01 7.85864890e-01 7.44383872e-01 7.61298537e-01 7.41726875e-01 7.41020679e-01 7.40620673e-01 7.38237560e-01 -1. -1. -1. -1. -1. -1. -1. 8.57457757e-01 8.48584414e-01 8.50102901e-01 8.53306830e-01 8.56174648e-01 8.58252525e-01 8.42054486e-01 -1. -1. -1. -1. -1. -1. -1. -1. -1. -1. -1. -1. -1. -1. -1. -1. -1. -1. -1. -1. -1. -1. -1. -1. -1. -1. -1. -1. -1. -1. -1. -1. 9.39054251e-01 9.40030038e-01 9.33264434e-01 9.31066275e-01 9.19286013e-01 9.48717892e-01 9.31765437e-01 9.06993032e-01 9.22357500e-01 9.87975657e-01 9.87875402e-01 9.93236959e-01 9.57299173e-01 -1. -1. -1. -1. 9.07654881e-01 8.97939742e-01 8.87071908e-01 8.42843235e-01 8.93162847e-01 9.09512043e-01 9.22695816e-01 9.52089548e-01 9.26026881e-01 9.40673769e-01 9.38807964e-01 9.38457429e-01 9.41132843e-01 9.35280025e-01 9.66606319e-01 9.15244222e-01 1.06888318e+00 1.07119429e+00 1.05448353e+00 1.05982399e+00 1.03589547e+00 9.51872528e-01 1.02187967e+00 9.99860525e-01 1.01300991e+00 1.01427460e+00 9.95322049e-01 1.00191832e+00 9.81052279e-01 9.86519814e-01 9.73082304e-01 9.61517870e-01 9.48498845e-01 9.99261320e-01 1.08117676e+00 1.05306232e+00 1.05835390e+00 1.05525804e+00 1.07943964e+00 1.09595537e+00 1.08062482e+00 1.07345748e+00 1.08537042e+00 9.68120694e-01 1.08812094e+00 1.12733161e+00 1.14289904e+00 1.05377972e+00 1.03756917e+00 1.07567096e+00 1.02595162e+00 9.91779506e-01 9.93585527e-01 9.84001875e-01 9.93130624e-01 1.00657821e+00 1.00122190e+00 1.00859380e+00 9.92270589e-01 -1. 9.92502332e-01 9.84126210e-01 9.87336934e-01 9.88601863e-01 9.91905689e-01 9.99438465e-01 1.00249660e+00 1.00555396e+00 1.00717747e+00 9.94712353e-01 1.07961154e+00 1.20219731e+00 1.16050589e+00 1.21830261e+00 -1. -1. -1. -1. -1. -1. -1. -1. -1. -1. 1.17239404e+00 1.06107521e+00 1.10662675e+00 1.08518600e+00 -1. 1.15188003e+00 1.13044214e+00 1.13505495e+00 1.08684540e+00 -1. -1. 1.11502254e+00 1.07623279e+00 1.06794393e+00 1.01516545e+00 1.06740916e+00 1.00634778e+00 1.07173789e+00 9.77313697e-01 9.12772536e-01 9.27532613e-01 9.15809691e-01 9.26785409e-01 -1. -1. 1.04464221e+00 1.03986955e+00 9.72813666e-01 -1. 8.21551204e-01 9.75336611e-01 7.48846233e-01 7.52464235e-01 7.60542750e-01 7.55176067e-01 7.84819901e-01 7.72186220e-01 7.55984426e-01 7.45387733e-01 7.33020484e-01 -1. -1. -1. -1. -1. -1. 7.72525489e-01 7.59414613e-01 7.65555143e-01 7.59643734e-01 7.66607344e-01 7.72792935e-01 7.66393304e-01 7.75123775e-01 7.62041986e-01 7.70394862e-01 7.69365430e-01 7.66373515e-01 7.64526248e-01 7.65832186e-01 7.61269748e-01 7.71881878e-01 7.90710568e-01 8.85970533e-01 8.17663789e-01 9.28488255e-01 9.24856424e-01 9.38313365e-01 9.36656833e-01 9.49290991e-01 -1. -1. -1. -1. -1. -1. -1. -1. -1. -1. -1. -1. -1. -1. -1. -1. -1. -1. -1. 1.29684234e+00 1.29210436e+00 -1. -1. 1.24600410e+00 1.25289297e+00 1.22187674e+00 1.12249124e+00 1.13243783e+00 1.08114517e+00 1.11445212e+00 1.09497714e+00 1.07254732e+00 1.10303748e+00 1.01861000e+00 9.95977819e-01 1.10602379e+00 9.71760094e-01 9.62078989e-01 9.59204733e-01 9.53166425e-01 9.52321827e-01 1.00975907e+00 1.00433218e+00 -1. 1.01296711e+00 1.01225495e+00 1.01365900e+00 -1. -1. -1. -1. -1. -1. -1. -1. -1. -1. -1. -1. -1. -1. -1. -1. -1. -1. -1. -1. -1. -1. -1. -1. -1. -1. -1. -1. -1. -1. -1. -1. -1. -1. -1. -1. -1. -1. -1. -1. -1. -1. -1. -1. -1. -1. -1. -1. -1. 9.96773779e-01 1.04058456e+00 1.04016376e+00 1.03117204e+00 -1. 1.04167163e+00 1.06568933e+00 1.01448870e+00 1.00175452e+00 1.01569998e+00 9.73390102e-01 1.11517394e+00 9.82969403e-01 -1. -1. -1. -1. -1. 9.61766899e-01 9.97321188e-01 9.72257555e-01 9.74154949e-01 9.75975811e-01 9.78018880e-01 9.84386504e-01 9.62253451e-01 9.57016468e-01 9.63793397e-01 9.72500205e-01 9.67465937e-01 9.78022099e-01 9.78203535e-01 9.72025812e-01 -1. -1. -1. -1. -1. -1. 9.88491178e-01 9.92659867e-01 9.73548532e-01 9.59632456e-01 -1. -1. -1. -1. -1. 9.85020041e-01 9.88308668e-01 9.94387567e-01 9.91764247e-01 9.86217499e-01 9.79503930e-01 9.95252848e-01 -1. -1. -1. -1. -1. -1. 1.07513654e+00 1.06962109e+00 1.08589029e+00 1.08619118e+00 1.08309460e+00 1.08150446e+00 -1. -1. -1. -1. -1. -1. -1. -1. -1. -1. -1. -1. 1.05234206e+00 1.04525387e+00 1.02409017e+00 1.02876222e+00 1.02247989e+00 1.02302206e+00 1.01566148e+00 1.03775728e+00 1.06528962e+00 1.15263534e+00 1.09710455e+00 1.08099544e+00 1.04030418e+00 9.84825313e-01 9.63432312e-01 -1. 9.37801063e-01 9.46052074e-01 9.19639349e-01 9.39803898e-01 9.26478803e-01 9.29160297e-01 -1. -1. -1. -1. -1. -1.
    -1. 7.42082775e-01 7.53252804e-01 7.72290170e-01 7.98250139e-01 8.20328295e-01 8.29446018e-01 7.95856535e-01 8.08201492e-01 8.01536143e-01 7.74562716e-01 7.68415034e-01 7.56558478e-01 7.46218264e-01 7.09691584e-01 7.33454406e-01 -1. -1. -1. -1. -1. -1. -1. -1. -1. -1. 8.43569100e-01 8.32040370e-01 8.45124424e-01 8.41418207e-01 8.38659167e-01 8.37215066e-01 8.35601032e-01 8.26782763e-01 -1. -1. -1. -1. -1. -1. -1. -1. -1. -1. -1. -1. -1. -1. -1. -1. -1. -1. -1. -1. -1. -1. -1. -1. -1. -1. -1. -1. -1. -1. -1. 9.40095007e-01 9.48116302e-01 9.43008363e-01 -1. 9.19646680e-01 9.15941775e-01 9.10686553e-01 9.26770151e-01 9.92167294e-01 9.63406324e-01 -1. -1. -1. -1. 8.32704306e-01 8.92739952e-01 8.87277007e-01 8.93146336e-01 8.77637386e-01 8.79332364e-01 8.83050621e-01 8.94181848e-01 9.15157855e-01 9.25390840e-01 9.50946391e-01 9.49802279e-01 9.41786706e-01 9.24281716e-01 9.33590055e-01 9.30726051e-01 9.28382099e-01 9.39785600e-01 9.49439585e-01 9.60556507e-01 9.38912451e-01 9.28534687e-01 9.64994431e-01 9.73322690e-01 9.48018730e-01 9.93607998e-01 1.00848413e+00 1.01655984e+00 1.01024175e+00 9.91092622e-01 9.73467946e-01 1.00246763e+00 9.97429669e-01 9.64403033e-01 9.57958639e-01 9.54542458e-01 9.44541395e-01 9.98510778e-01 1.05206680e+00 1.02131593e+00 1.02950752e+00 1.07612908e+00 1.09462166e+00 1.06503928e+00 1.04869676e+00 1.07320714e+00 1.13262939e+00 1.12981868e+00 1.10026670e+00 1.10412049e+00 1.09299016e+00 1.10796487e+00 1.09330285e+00 1.04547620e+00 1.01285958e+00 9.86892760e-01 9.83945906e-01 9.59779024e-01 1.00268471e+00 9.97676909e-01 9.88528311e-01 9.97224450e-01 1.01002932e+00 9.94903207e-01 9.95169222e-01 9.70899880e-01 9.73618090e-01 9.60096061e-01 9.97010827e-01 1.01071262e+00 1.00221813e+00 1.01434422e+00 1.03945470e+00 1.10423768e+00 1.18277311e+00 1.13814473e+00 1.34439421e+00 1.33459342e+00 1.32541680e+00 -1. -1. -1. -1. -1. -1. -1. -1. -1. 1.11705387e+00 1.14170802e+00 1.08924198e+00 1.11333466e+00 1.12987173e+00 1.12971735e+00 1.12794971e+00 1.10799503e+00 1.12111151e+00 -1. 1.11370826e+00 1.05298829e+00 1.05869091e+00 1.05248773e+00 1.02922130e+00 1.00641310e+00 9.80669439e-01 9.58544493e-01 9.08558309e-01 9.17621851e-01 9.03243065e-01 9.26081777e-01 -1. -1. 1.04444599e+00 1.04109168e+00 1.03401399e+00 -1. 8.34303975e-01 8.10553372e-01 7.45659292e-01 7.49808431e-01 7.97990918e-01 7.94137597e-01 9.58435059e-01 7.40940690e-01 -1. -1. -1. 9.43613708e-01 8.66028905e-01 -1. -1. -1. -1. 7.52883673e-01 7.33393252e-01 7.52771676e-01 7.40289211e-01 7.57148921e-01 7.58571327e-01 7.52210081e-01 7.57889330e-01 7.52270818e-01 7.69193888e-01 7.76649833e-01 7.66306579e-01 7.76302040e-01 7.64077902e-01 7.59875894e-01 7.54055619e-01 7.71578312e-01 7.56551623e-01 8.26274157e-01 9.56522644e-01 9.59340990e-01 9.72107708e-01 9.59468722e-01 9.77160156e-01 9.70775604e-01 -1. -1. -1. -1. -1. -1. -1. -1. -1. -1. -1. -1. -1. -1. -1. -1. -1. -1. -1. -1. 1.27878487e+00 1.26376724e+00 1.26424241e+00 1.24561644e+00 1.24734366e+00 1.20917439e+00 1.26515675e+00 1.08259547e+00 1.09397280e+00 1.06929266e+00 1.03323793e+00 1.02912605e+00 1.00143492e+00 1.11292756e+00 1.10132003e+00 1.09809470e+00 1.09076369e+00 1.02363610e+00 9.84718144e-01 9.54847574e-01 9.71336544e-01 1.00039518e+00 9.99275506e-01 -1. 1.01192069e+00 1.01190495e+00 1.01791644e+00 -1. -1. -1. -1. -1. -1. -1. -1. -1. -1. -1. -1. -1. -1. -1. -1. -1. -1. -1. -1. -1. -1. -1. -1. -1. -1. -1. -1. -1. -1. -1. -1. -1. -1. -1. -1. -1. -1. -1. -1. -1. -1. -1. -1. -1. -1. -1. -1. -1. -1. -1. -1. -1. -1. 1.09526491e+00 1.14022338e+00 1.13946891e+00 1.11117136e+00 -1. -1. -1. -1. 9.92748439e-01 -1. 9.91397023e-01 -1. 9.81833160e-01 9.77670014e-01 1.00032687e+00 9.91835773e-01 9.85124171e-01 9.84105170e-01 9.74540651e-01 9.70432878e-01 9.54144120e-01 9.61350620e-01 9.68107402e-01 9.63436842e-01 9.68122005e-01 9.68579471e-01 9.70864475e-01 -1. -1. -1. -1. -1. -1. -1. 9.91047204e-01 9.92478371e-01 9.51358974e-01 -1. -1. -1. -1. -1. 9.94968355e-01 9.87888396e-01 9.74753857e-01 9.79889989e-01 9.87764060e-01 9.74583983e-01 1.00864375e+00 1.02469444e+00 -1. -1. -1. -1. -1. 1.07999599e+00 1.09629142e+00 1.09332538e+00 1.10348785e+00 1.09050179e+00 1.08674383e+00 -1. -1. -1. -1. -1. -1. -1. -1. -1. -1. -1. -1. 1.07145441e+00 1.06538939e+00 1.05573177e+00 1.06230044e+00 1.04057682e+00 1.03959405e+00 1.05788755e+00 1.13485742e+00 1.06834447e+00 1.07210445e+00 1.12361348e+00 1.08067811e+00 -1. -1. -1. -1. 9.51165140e-01 9.07829821e-01 8.97284806e-01 8.72269213e-01 8.82303774e-01 8.68700206e-01 8.78318667e-01 -1. -1. -1. -1. -1.
    -1. 7.32642710e-01 7.36432970e-01 7.35687613e-01 7.39140928e-01 7.10697591e-01 7.70593226e-01 8.07492256e-01 -1. -1. -1. -1. 7.39981532e-01 7.13679075e-01 7.27488458e-01 7.40864694e-01 -1. -1. -1. -1. -1. -1. -1. -1. -1. 8.34216654e-01 8.31349373e-01 8.28589737e-01 8.12623799e-01 8.17197204e-01 8.24141622e-01 8.21107864e-01 8.23283195e-01 8.28776717e-01 8.28265846e-01 -1. -1. -1. -1. -1. -1. -1. -1. -1. -1. -1. -1. -1. -1. -1. -1. -1. -1. -1. -1. -1. -1. -1. -1. -1. -1. -1. -1. -1. -1. 9.49323416e-01 9.46510375e-01 9.35864747e-01 9.12875652e-01 9.12182391e-01 9.14932311e-01 8.94053578e-01 9.56970572e-01 9.22587574e-01 9.31872487e-01 -1. 8.41189981e-01 8.41039062e-01 8.50758672e-01 8.84102821e-01 8.49006057e-01 8.58513534e-01 8.56169581e-01 8.51856887e-01 8.58523488e-01 9.30108845e-01 9.34468508e-01 9.09706295e-01 9.16618943e-01 9.05838132e-01 9.48631525e-01 9.38076854e-01 -1. -1. -1. 9.07639742e-01 8.93724024e-01 8.86100292e-01 8.67807031e-01 8.28239322e-01 8.19687486e-01 8.25852692e-01 8.17809701e-01 8.87300551e-01 9.14557755e-01 9.34980333e-01 9.72941697e-01 9.67856646e-01 9.65537012e-01 8.83049667e-01 9.58725691e-01 9.57041681e-01 8.94550860e-01 9.52449024e-01 9.46060658e-01 9.46996212e-01 9.16705430e-01 9.59310353e-01 9.83637512e-01 9.96917963e-01 9.63368356e-01 1.01266789e+00 1.08207273e+00 1.04852509e+00 1.10820210e+00 1.07042348e+00 1.09834504e+00 1.09104896e+00 1.09828579e+00 1.10260844e+00 1.11808062e+00 1.09830272e+00 1.01091838e+00 9.97990251e-01 9.44685161e-01 9.89079535e-01 9.83837426e-01 9.68197107e-01 9.58907247e-01 9.93194580e-01 1.01605165e+00 9.62221324e-01 1.03452456e+00 9.69011784e-01 9.86648023e-01 1.01813161e+00 9.94771898e-01 9.89934504e-01 1.01666200e+00 1.01158464e+00 1.01792324e+00 1.05692613e+00 1.08575404e+00 1.10250878e+00 1.16517162e+00 1.17048049e+00 1.03031898e+00 1.33823943e+00 -1. -1. -1. -1. -1. -1. 1.07773566e+00 -1. -1. 1.10024917e+00 1.09199369e+00 1.09669876e+00 1.11493003e+00 1.15122628e+00 1.12879574e+00 1.16895771e+00 1.13463604e+00 1.11365879e+00 -1. 1.11073530e+00 1.08947372e+00 1.05932617e+00 1.00873268e+00 1.02472365e+00 9.96276915e-01 -1. -1. 9.99539733e-01 9.12329197e-01 9.24043179e-01 9.19695735e-01 -1. -1. -1. -1. -1. -1. -1. 9.46041524e-01 7.37210274e-01 7.36255169e-01 7.37363935e-01 9.45463538e-01 7.41246641e-01 9.43511724e-01 7.31349111e-01 -1. 8.44483852e-01 8.72204304e-01 8.52952242e-01 8.20462823e-01 -1. -1. 7.38512576e-01 7.34010696e-01 7.26343930e-01 7.30742753e-01 7.29776263e-01 7.30228007e-01 7.42970943e-01 -1. 7.44785368e-01 7.48503864e-01 7.45350540e-01 -1. -1. -1. 7.59730697e-01 7.52681911e-01 7.46650755e-01 7.68297315e-01 7.70603716e-01 7.68856764e-01 8.62685502e-01 9.67470944e-01 9.64141667e-01 9.57016647e-01 9.57064688e-01 -1. -1. -1. -1. -1. -1. -1. -1. -1. -1. -1. -1. -1. -1. -1. -1. -1. -1. -1. 1.29595256e+00 1.31063557e+00 1.30597639e+00 1.32399869e+00 1.30004227e+00 1.31463754e+00 1.27865434e+00 1.28276587e+00 1.20444977e+00 1.12752795e+00 1.06750286e+00 1.06550336e+00 1.04327154e+00 1.11278152e+00 -1. 9.83447075e-01 1.11838269e+00 1.09623444e+00 1.09562445e+00 1.08984041e+00 1.01085341e+00 9.54891920e-01 9.53704119e-01 9.44540620e-01 9.83414233e-01 -1. 1.02035809e+00 1.00110304e+00 1.01160717e+00 -1. -1. -1. -1. -1. -1. -1. -1. -1. -1. -1. -1. -1. -1. -1. -1. -1. -1. -1. -1. -1. -1. -1. -1. -1. -1. -1. -1. -1. -1. -1. -1. -1. -1. -1. -1. -1. -1. -1. -1. -1. -1. -1. -1. -1. -1. -1. -1. -1. -1. -1. -1. -1. -1. 1.12724483e+00 1.12268114e+00 -1. 1.08637059e+00 -1. -1. -1. -1. -1. -1. 9.90488887e-01 -1. 1.00637388e+00 9.96070027e-01 9.92759585e-01 9.96444166e-01 9.86914098e-01 9.87257004e-01 9.80199397e-01 9.73120809e-01 9.58226085e-01 9.63443816e-01 9.62602377e-01 9.58875060e-01 9.61688757e-01 9.72745717e-01 9.70812023e-01 9.69499826e-01 -1. -1. -1. -1. -1. -1. 1.00077200e+00 9.86700714e-01 9.80605125e-01 -1. -1. -1. -1. -1. 9.90947902e-01 9.98234153e-01 9.95700240e-01 9.97993469e-01 9.96782184e-01 9.96001303e-01 1.00107098e+00 1.00823033e+00 1.00944340e+00 1.00175369e+00 1.02156329e+00 -1. 1.07316053e+00 1.06824768e+00 1.06816089e+00 1.08749807e+00 1.08473325e+00 1.11199808e+00 1.07852566e+00 -1. -1. -1. -1. -1. -1. -1. -1. -1. -1. -1. -1. 1.07563758e+00 1.06596732e+00 1.05735087e+00 1.06408596e+00 1.08397305e+00 1.09045446e+00 1.08504379e+00 1.12197387e+00 1.13550484e+00 1.06482220e+00 -1. -1. -1. -1. 9.61259305e-01 9.58036184e-01 9.27139163e-01 9.53637540e-01 9.22956347e-01 8.68595004e-01 8.62978816e-01 8.77202690e-01 8.67138088e-01 -1. -1. -1. -1. -1.
    -1. 7.05940008e-01 7.13793635e-01 7.29292870e-01 7.28160441e-01 7.31025398e-01 7.44022667e-01 -1. -1. -1. -1. -1. -1. 7.18793571e-01 7.09825695e-01 7.40018368e-01 -1. 7.29161441e-01 7.29492486e-01 7.32357264e-01 -1. -1. -1. -1. -1. -1. -1. 8.20770025e-01 8.19452107e-01 8.25452864e-01 8.28948319e-01 8.34105253e-01 -1. -1. -1. -1. -1. -1. -1. -1. -1. -1. -1. -1. -1. -1. -1. -1. -1. -1. -1. -1. -1. -1. -1. -1. -1. -1. -1. -1. -1. -1. -1. -1. -1. -1. 9.81345057e-01 9.69397306e-01 9.27205682e-01 -1. 9.18971479e-01 7.87212074e-01 7.84916818e-01 9.21229422e-01 -1. 8.56910408e-01 8.41845393e-01 8.49614561e-01 8.56072247e-01 8.72667253e-01 8.48448634e-01 8.42469156e-01 8.51030886e-01 8.39931965e-01 8.29535842e-01 8.70143592e-01 9.01673853e-01 9.13373113e-01 9.07113254e-01 9.08681452e-01 9.22705710e-01 -1. -1. -1. -1. 8.67914021e-01 8.49665761e-01 8.43840539e-01 8.33961010e-01 8.29193294e-01 8.31245661e-01 8.25027049e-01 8.25571418e-01 8.26914191e-01 8.42523396e-01 8.49839032e-01 9.54447031e-01 9.19508696e-01 9.47028100e-01 9.37892079e-01 9.10869300e-01 9.10123944e-01 9.10084665e-01 9.11367357e-01 9.11532760e-01 9.01433349e-01 9.10161197e-01 9.00496662e-01 9.95255768e-01 9.44845438e-01 9.49745715e-01 9.37787831e-01 9.85716164e-01 1.00639331e+00 1.01276112e+00 1.00262797e+00 1.07355738e+00 1.12127292e+00 1.04989564e+00 1.10081089e+00 1.04794002e+00 1.02046239e+00 1.01288545e+00 9.95801389e-01 9.97764945e-01 9.79495168e-01 9.75517631e-01 9.69719529e-01 9.68970120e-01 9.82996583e-01 9.74795640e-01 9.90808070e-01 9.91068602e-01 9.84797776e-01 9.89680350e-01 9.83391047e-01 9.61980999e-01 1.03190911e+00 1.00461864e+00 1.06191325e+00 1.04106402e+00 1.12571275e+00 1.11044919e+00 1.12512183e+00 1.02865815e+00 1.09716618e+00 1.08824861e+00 1.08425343e+00 1.01870334e+00 1.01992893e+00 1.02659833e+00 -1. 1.02500129e+00 1.03403497e+00 1.06639946e+00 1.09643757e+00 1.11250758e+00 1.10256636e+00 1.10126829e+00 1.09484816e+00 1.11445534e+00 1.13422394e+00 1.08266294e+00 1.13769603e+00 1.14943409e+00 1.12438607e+00 1.01727176e+00 1.02991164e+00 1.01139045e+00 8.48152757e-01 1.01012957e+00 1.01685834e+00 1.01713920e+00 -1. -1. 1.01552594e+00 9.19361472e-01 9.14652169e-01 9.23804522e-01 -1. -1. -1. -1. -1. -1. -1. 7.84922004e-01 7.28017747e-01 9.14980769e-01 7.29707241e-01 7.43226588e-01 7.35648811e-01 9.56921220e-01 7.34174609e-01 -1. 9.38371241e-01 8.65171373e-01 9.08314109e-01 7.68708169e-01 -1. -1. 7.37481296e-01 7.35423088e-01 7.30056107e-01 7.25912869e-01 7.21624851e-01 7.29175568e-01 -1. -1. 7.47438371e-01 7.49988973e-01 -1. -1. -1. -1. -1. 7.49799252e-01 7.53189623e-01 7.54000843e-01 7.59069681e-01 7.39508092e-01 8.13641012e-01 9.23271775e-01 9.70277727e-01 9.71141100e-01 9.77251649e-01 9.95506644e-01 9.96219456e-01 -1. -1. -1. -1. -1. -1. -1. -1. -1. -1. -1. -1. -1. -1. -1. -1. -1. 1.29971886e+00 -1. 1.29871011e+00 1.29937506e+00 1.29322135e+00 1.29532683e+00 1.28756011e+00 1.35226142e+00 1.24934685e+00 -1. 1.08309591e+00 1.06428480e+00 1.04253435e+00 -1. -1. 1.12597907e+00 1.12947869e+00 1.10606706e+00 1.10190105e+00 1.10494483e+00 1.02330852e+00 9.64363337e-01 9.62134778e-01 9.51683342e-01 -1. -1. -1. 1.01493692e+00 1.01149738e+00 -1. -1. -1. -1. -1. -1. -1. -1. -1. -1. -1. -1. -1. -1. -1. -1. -1. -1. -1. -1. -1. -1. -1. -1. -1. -1. -1. -1. -1. -1. -1. -1. -1. -1. -1. -1. -1. -1. -1. -1. -1. -1. -1. -1. -1. -1. -1. -1. -1. -1. -1. 9.08393025e-01 8.91544878e-01 9.47454989e-01 1.01558816e+00 1.12203419e+00 1.09737301e+00 -1. -1. -1. -1. -1. -1. -1. 9.96153414e-01 -1. 9.96160388e-01 9.81903970e-01 9.89121139e-01 9.94889140e-01 9.74978089e-01 9.58932579e-01 8.87394190e-01 9.65760112e-01 9.55949068e-01 9.69701231e-01 9.74119663e-01 9.67496872e-01 9.59228754e-01 9.63655651e-01 9.66025293e-01 9.66801524e-01 9.67885792e-01 -1. -1. -1. -1. 1.00374591e+00 -1. 9.88512635e-01 9.85897124e-01 -1. -1. -1. -1. -1. 9.76341367e-01 9.79724884e-01 9.81622934e-01 9.84129071e-01 9.87108946e-01 9.90275145e-01 1.01010966e+00 1.01881599e+00 9.90559995e-01 9.72500563e-01 -1. -1. 1.05942857e+00 1.08289802e+00 1.07847166e+00 1.08056819e+00 1.07669890e+00 1.06293297e+00 1.06569254e+00 -1. -1. -1. -1. -1. -1. -1. -1. -1. -1. -1. -1. 1.04469919e+00 1.04521549e+00 1.03095949e+00 1.02003980e+00 1.04513419e+00 1.06009901e+00 1.01530123e+00 1.14818966e+00 1.15122771e+00 1.09326267e+00 -1. -1. 1.01129103e+00 9.81746197e-01 9.77306545e-01 9.71843243e-01 9.66712475e-01 9.53152895e-01 8.83503437e-01 8.90734315e-01 8.74385536e-01 8.83553684e-01 8.75404179e-01 -1. -1. -1. -1. -1.
    -1. 7.19925165e-01 7.09088147e-01 7.31067121e-01 7.20544517e-01 7.36984015e-01 7.29946196e-01 -1. -1. -1. -1. -1. -1. 7.07354426e-01 7.10728765e-01 7.31035531e-01 7.37139225e-01 7.27302730e-01 7.33413339e-01 7.40221620e-01 -1. -1. -1. -1. -1. 8.10743868e-01 8.16432416e-01 8.18935037e-01 8.15953851e-01 8.30621779e-01 8.40068996e-01 8.21348608e-01 -1. -1. -1. -1. -1. -1. -1. -1. -1. -1. -1. -1. -1. -1. -1. -1. -1. -1. -1. -1. -1. -1. -1. -1. -1. -1. -1. -1. -1. -1. -1. -1. -1. -1. 1.03819549e+00 1.06953156e+00 9.81986284e-01 9.45703030e-01 8.95023823e-01 8.77974391e-01 9.15000975e-01 -1. 9.30454552e-01 8.85220110e-01 8.53105783e-01 8.61593783e-01 8.67262542e-01 8.41263890e-01 8.38010371e-01 8.45891953e-01 8.41300547e-01 8.49447966e-01 8.40906918e-01 8.28113973e-01 8.59775782e-01 8.66927028e-01 8.69867384e-01 8.74058604e-01 8.86649430e-01 -1. -1. -1. -1. -1. 8.39924335e-01 8.38351429e-01 8.26126695e-01 8.23908269e-01 8.36558163e-01 8.37558508e-01 8.33434403e-01 8.41760933e-01 8.49499166e-01 8.52235019e-01 9.00649190e-01 9.04615462e-01 9.32736218e-01 9.36729252e-01 9.29907560e-01 9.05546904e-01 8.86857688e-01 8.87891293e-01 8.87697101e-01 8.79031599e-01 8.90696585e-01 8.95305037e-01 9.03493345e-01 9.02245522e-01 9.02366877e-01 9.43369210e-01 9.41218078e-01 9.60865021e-01 9.83644187e-01 9.74049091e-01 9.76318002e-01 9.85096395e-01 9.53570485e-01 9.49779570e-01 9.89959419e-01 9.94450331e-01 9.52369452e-01 1.00129008e+00 9.28455770e-01 9.54337895e-01 9.81232405e-01 9.94263947e-01 8.73725533e-01 1.01307404e+00 9.88499224e-01 9.93623972e-01 9.98306751e-01 1.00128484e+00 9.71947849e-01 9.88267481e-01 9.85548794e-01 9.80517089e-01 9.64864135e-01 1.00560927e+00 1.02214253e+00 1.03541338e+00 9.85126793e-01 1.04101861e+00 1.04153216e+00 1.04218280e+00 1.02540445e+00 1.02182400e+00 1.02325547e+00 1.01579380e+00 1.01609850e+00 -1. 1.02712119e+00 1.01659596e+00 1.06286001e+00 1.09844410e+00 1.10141218e+00 1.10187030e+00 1.09329784e+00 1.07982469e+00 1.15855968e+00 1.11772466e+00 1.12099302e+00 1.16284561e+00 1.14777398e+00 1.12918687e+00 9.98961449e-01 9.98016477e-01 1.00931382e+00 8.65762651e-01 1.00243676e+00 8.48622084e-01 9.71263766e-01 -1. -1. 1.01909387e+00 9.60868537e-01 9.89226937e-01 -1. -1. -1. -1. 7.65163064e-01 7.58294225e-01 7.80747652e-01 -1. 7.61103451e-01 7.51684844e-01 7.33954310e-01 7.43221700e-01 7.38163233e-01 7.39063382e-01 7.37744331e-01 7.37279058e-01 -1. 8.11236858e-01 7.63513386e-01 7.60806262e-01 7.50978589e-01 -1. 7.44426608e-01 7.37426221e-01 7.31207013e-01 7.33855963e-01 7.29562283e-01 7.33736813e-01 7.31992424e-01 -1. -1. -1. -1. -1. -1. -1. -1. -1. -1. 7.51827896e-01 7.38728046e-01 7.34013200e-01 7.26980269e-01 7.81817198e-01 8.87951434e-01 9.66790140e-01 9.75399435e-01 9.80631351e-01 -1. -1. -1. -1. -1. -1. -1. -1. -1. -1. -1. -1. -1. -1. -1. -1. -1. -1. -1. -1. -1. -1. -1. -1. -1. -1. -1. -1. -1. -1. -1. -1. -1. 9.87579286e-01 1.13790715e+00 9.73266482e-01 1.13506007e+00 1.11945093e+00 1.11167777e+00 1.10475576e+00 9.57873166e-01 8.89471531e-01 -1. -1. -1. -1. -1. -1. -1. -1. -1. -1. -1. -1. -1. -1. -1. -1. -1. -1. -1. -1. -1. -1. -1. -1. -1. -1. -1. -1. -1. -1. -1. -1. -1. -1. -1. -1. -1. -1. -1. -1. -1. -1. -1. -1. -1. -1. -1. -1. -1. -1. -1. -1. -1. -1. -1. -1. -1. -1. 9.15096998e-01 8.84330690e-01 8.97530675e-01 -1. -1. -1. -1. -1. -1. -1. -1. -1. -1. -1. -1. 1.02076638e+00 1.01406109e+00 8.85484755e-01 9.64074612e-01 9.41679716e-01 9.23340261e-01 9.47686791e-01 9.40162659e-01 9.43787098e-01 9.59004283e-01 -1. -1. 9.50647771e-01 -1. -1. -1. -1. -1. -1. -1. -1. -1. -1. -1. -1. -1. -1. -1. -1. 9.77190197e-01 9.73293006e-01 9.85464633e-01 9.82903659e-01 9.81724381e-01 9.88742590e-01 9.93697941e-01 9.85899985e-01 9.68166292e-01 9.36071455e-01 -1. -1. 1.08946514e+00 1.09498227e+00 1.09299886e+00 1.09369504e+00 1.09525633e+00 1.11944509e+00 1.11886227e+00 -1. -1. -1. -1. -1. -1. -1. -1. -1. 1.05223441e+00 1.04492390e+00 1.01682436e+00 1.00810218e+00 1.03813171e+00 1.03299093e+00 1.02660275e+00 1.03374839e+00 1.02979887e+00 1.04564905e+00 1.04565239e+00 1.05363905e+00 1.06568778e+00 -1. -1. 9.89894927e-01 9.77809608e-01 9.70225215e-01 9.44856584e-01 9.75211918e-01 9.19289649e-01 9.18580949e-01 9.09227252e-01 8.94686580e-01 9.01298702e-01 8.76586974e-01 -1. -1. -1. -1. -1.
    7.43326783e-01 7.34370828e-01 7.25520551e-01 7.19348252e-01 7.21341193e-01 7.27429092e-01 -1. -1. -1. -1. -1. -1. -1. 7.17622638e-01 7.14076459e-01 7.47895181e-01 7.38747537e-01 7.45630920e-01 7.42466867e-01 7.54265368e-01 -1. -1. -1. 7.30037749e-01 -1. -1. 8.29575539e-01 8.06040823e-01 8.08739841e-01 8.14949155e-01 8.12080324e-01 8.20323884e-01 -1. -1. -1. -1. -1. -1. -1. -1. -1. -1. -1. -1. -1. -1. -1. -1. -1. -1. -1. -1. -1. -1. -1. -1. -1. -1. -1. -1. -1. -1. -1. -1. -1. -1. 1.06880796e+00 1.06954253e+00 9.86741126e-01 9.09714162e-01 8.79415393e-01 9.40022469e-01 9.07366991e-01 -1. 9.21064794e-01 9.04087245e-01 9.05993640e-01 8.66536975e-01 8.50260735e-01 8.30970407e-01 8.31797004e-01 8.28042328e-01 -1. -1. -1. 8.33420634e-01 8.36698294e-01 8.33004296e-01 8.34906578e-01 8.45015287e-01 -1. -1. -1. -1. -1. -1. -1. 8.22615683e-01 8.23332250e-01 8.35501432e-01 8.53271961e-01 8.52552652e-01 8.48209858e-01 8.50089729e-01 8.47579956e-01 8.58807564e-01 8.85304689e-01 9.06419098e-01 9.09590542e-01 8.85499895e-01 8.94081056e-01 8.81775200e-01 8.85254681e-01 8.80384505e-01 8.66741717e-01 8.59891891e-01 8.65548134e-01 8.84354174e-01 8.80030930e-01 8.61558557e-01 9.31783080e-01 8.89179826e-01 9.34987605e-01 9.30908084e-01 9.35768962e-01 9.20640290e-01 9.22206521e-01 9.35827613e-01 9.38099205e-01 9.48789120e-01 9.60787654e-01 9.52201664e-01 9.90602612e-01 1.11991715e+00 1.00652838e+00 9.87545192e-01 9.65678394e-01 1.08302796e+00 9.88202751e-01 9.99839902e-01 9.80351388e-01 9.93604362e-01 1.02519619e+00 1.00944388e+00 1.03510892e+00 9.82799232e-01 9.89334404e-01 9.81707394e-01 9.95387495e-01 9.79490697e-01 9.73113120e-01 1.01941419e+00 1.02510774e+00 1.01156938e+00 1.02742219e+00 1.01592910e+00 1.00441265e+00 1.02922750e+00 1.02128983e+00 1.02119541e+00 1.02646267e+00 1.01339221e+00 -1. 1.02584839e+00 1.06240380e+00 1.08909702e+00 1.08617783e+00 1.11156893e+00 1.05659795e+00 1.08292854e+00 1.07512462e+00 1.15723550e+00 1.15467024e+00 1.16650367e+00 9.90356505e-01 9.72526491e-01 9.93523359e-01 9.97171700e-01 9.84654307e-01 9.84604776e-01 1.02760756e+00 1.01399505e+00 -1. -1. -1. 9.66462314e-01 9.57791686e-01 8.99763346e-01 -1. 8.60923052e-01 8.31174433e-01 8.49610984e-01 8.21165562e-01 7.93296695e-01 7.73105800e-01 -1. 7.42192328e-01 7.51269341e-01 7.47705221e-01 7.45991468e-01 7.50268698e-01 7.48115242e-01 7.47327745e-01 9.31778312e-01 -1. -1. 7.64546454e-01 7.66810656e-01 7.54950285e-01 -1. 7.37737060e-01 7.48029649e-01 7.39745140e-01 7.37956464e-01 7.43007243e-01 7.36109078e-01 7.30902791e-01 7.41387188e-01 -1. -1. -1. -1. -1. -1. -1. -1. -1. 7.41307557e-01 7.40496814e-01 7.28773832e-01 7.30997145e-01 7.69383132e-01 8.77393842e-01 9.77886736e-01 9.80298817e-01 9.82849777e-01 9.69920397e-01 -1. -1. -1. -1. -1. -1. -1. -1. -1. -1. -1. -1. -1. -1. -1. -1. -1. -1. -1. -1. -1. -1. -1. -1. -1. -1. -1. -1. -1. -1. -1. -1. 1.04528368e+00 1.00210822e+00 9.80758190e-01 9.70920801e-01 9.73373413e-01 9.68418002e-01 9.72648382e-01 8.83001864e-01 -1. -1. -1. -1. -1. -1. -1. -1. -1. -1. -1. -1. -1. -1. -1. -1. -1. -1. -1. -1. -1. -1. -1. -1. -1. -1. -1. -1. -1. -1. -1. -1. -1. -1. -1. -1. -1. -1. -1. -1. -1. -1. -1. -1. -1. -1. -1. -1. -1. -1. -1. -1. -1. -1. -1. -1. -1. 9.17548180e-01 9.23090994e-01 -1. 8.98867190e-01 -1. -1. -1. -1. -1. -1. -1. -1. -1. -1. -1. -1. -1. -1. 9.92837012e-01 1.02460098e+00 9.86877978e-01 1.00206947e+00 1.00416708e+00 9.51560497e-01 9.23552632e-01 9.44739461e-01 9.52699184e-01 -1. -1. -1. 9.56904411e-01 -1. -1. -1. -1. -1. -1. -1. -1. -1. -1. -1. -1. -1. -1. -1. -1. 9.84495759e-01 9.96457756e-01 9.91274655e-01 9.90353346e-01 9.74378645e-01 9.97920454e-01 -1. 9.57106948e-01 9.32126403e-01 9.18594122e-01 9.74680364e-01 1.03467453e+00 1.06949592e+00 1.08242846e+00 1.08795166e+00 1.08738697e+00 1.09750676e+00 1.09435689e+00 -1. -1. -1. -1. -1. -1. -1. -1. -1. 1.05594337e+00 1.06745088e+00 1.04626846e+00 1.05374634e+00 1.05082071e+00 1.04251850e+00 1.04016340e+00 1.04744935e+00 1.03682935e+00 1.04377532e+00 1.03426886e+00 1.00268877e+00 1.03409350e+00 -1. -1. 9.87330854e-01 9.62190628e-01 9.74265456e-01 9.65825379e-01 9.69744265e-01 9.80110288e-01 9.95028675e-01 9.68014121e-01 9.39885437e-01 9.74058568e-01 -1. -1. -1. -1. -1. -1.
    7.61454523e-01 7.47894347e-01 7.47114718e-01 7.30537057e-01 7.37633765e-01 7.34679043e-01 -1. -1. -1. -1. -1. -1. -1. -1. 7.33268082e-01 7.50667512e-01 7.45416224e-01 7.50270069e-01 7.49279201e-01 7.41504788e-01 7.34700978e-01 7.18435824e-01 -1. -1. -1. -1. 7.97777653e-01 7.67873645e-01 -1. 7.65583217e-01 8.06473255e-01 8.17019105e-01 -1. -1. -1. -1. -1. -1. -1. -1. -1. -1. -1. -1. -1. -1. -1. -1. -1. -1. -1. -1. -1. -1. -1. -1. -1. -1. -1. -1. -1. -1. -1. -1. -1. -1. 9.99685645e-01 1.07930768e+00 1.09201908e+00 8.14179659e-01 8.36194694e-01 8.67282450e-01 9.31661963e-01 9.51562107e-01 9.22669053e-01 9.14979100e-01 9.00548160e-01 8.66547346e-01 8.43895733e-01 8.51280034e-01 8.35485518e-01 8.40289533e-01 8.39719355e-01 8.55892360e-01 -1. 8.33360612e-01 8.17102432e-01 8.23854864e-01 8.31145704e-01 -1. -1. -1. -1. -1. -1. -1. -1. -1. -1. 8.35997999e-01 8.47582757e-01 8.51524770e-01 8.48191559e-01 -1. 8.47729683e-01 8.56099129e-01 -1. 8.97922575e-01 8.97539973e-01 8.93431604e-01 8.94641042e-01 8.97385716e-01 8.86758804e-01 8.86296272e-01 8.71980906e-01 8.64378035e-01 8.56782734e-01 8.46964061e-01 8.48844171e-01 8.53549540e-01 9.01501060e-01 8.83697093e-01 8.79850507e-01 9.28326488e-01 9.23436999e-01 9.21790898e-01 9.12768006e-01 9.20193672e-01 9.19415772e-01 9.25634265e-01 9.38028336e-01 9.55113709e-01 9.56091344e-01 9.86503959e-01 1.00030935e+00 9.75569069e-01 9.79643762e-01 9.72335875e-01 1.01067746e+00 9.94837701e-01 9.85119641e-01 9.98122752e-01 1.00269496e+00 1.00126147e+00 9.97095585e-01 9.85808671e-01 9.92442369e-01 9.90523040e-01 9.93936360e-01 9.95562077e-01 1.00387013e+00 1.01414835e+00 1.01941657e+00 1.01498222e+00 -1. 1.00801015e+00 9.84395862e-01 9.87785459e-01 1.00408578e+00 1.00940704e+00 1.00237334e+00 1.00511312e+00 1.01165473e+00 -1. 1.04815662e+00 1.07474267e+00 1.07101452e+00 1.06341469e+00 9.16183352e-01 9.92125452e-01 9.74972963e-01 -1. 1.03939474e+00 9.78705347e-01 9.77610528e-01 9.11308944e-01 9.96067762e-01 9.08737123e-01 9.77366209e-01 9.77744162e-01 9.92879689e-01 1.00799739e+00 9.85206306e-01 1.01720011e+00 -1. -1. -1. -1. 8.83529663e-01 8.39137018e-01 8.62858295e-01 8.37957382e-01 8.69461119e-01 8.00385535e-01 7.87405849e-01 -1. 7.64589369e-01 7.58436084e-01 7.51878858e-01 7.48285770e-01 7.55540907e-01 7.46518254e-01 7.41921484e-01 7.41065681e-01 -1. 7.57509708e-01 7.77099907e-01 7.47008681e-01 7.34230876e-01 7.37446308e-01 7.24444628e-01 7.35913277e-01 7.33820558e-01 7.42548764e-01 7.39628792e-01 7.30596423e-01 7.26593137e-01 7.47904420e-01 7.68989146e-01 -1. -1. -1. -1. -1. -1. 7.20528543e-01 6.82000756e-01 7.15453804e-01 6.87478006e-01 7.15022802e-01 7.19567776e-01 7.61588037e-01 8.98054540e-01 1.01136768e+00 9.84391570e-01 9.74673450e-01 9.56185102e-01 -1. -1. -1. -1. -1. -1. -1. -1. -1. -1. -1. -1. 9.24903572e-01 -1. -1. -1. -1. -1. -1. -1. -1. -1. -1. 1.24082661e+00 1.22004151e+00 1.21169424e+00 -1. -1. -1. -1. 1.11697018e+00 1.04484117e+00 1.04990172e+00 1.01845264e+00 1.13467550e+00 1.08452904e+00 1.11388612e+00 9.74599600e-01 1.11059463e+00 9.12794411e-01 9.58822429e-01 9.24574375e-01 9.49929953e-01 -1. -1. -1. -1. -1. -1. -1. -1. -1. -1. -1. -1. 9.26522553e-01 9.38298583e-01 9.36377406e-01 9.46410179e-01 9.34946775e-01 9.50762808e-01 -1. -1. -1. -1. -1. -1. -1. -1. -1. -1. -1. -1. -1. -1. -1. -1. -1. -1. -1. -1. -1. -1. -1. -1. -1. -1. -1. -1. -1. -1. -1. -1. -1. -1. -1. -1. -1. 9.22979176e-01 9.12336528e-01 9.10963178e-01 9.12735045e-01 -1. -1. -1. -1. -1. -1. -1. -1. -1. -1. -1. -1. 9.93347704e-01 -1. -1. -1. -1. 9.73006904e-01 9.56325293e-01 9.62226868e-01 -1. -1. -1. -1. -1. -1. -1. -1. -1. -1. -1. -1. -1. -1. -1. -1. -1. -1. -1. -1. -1. -1. 9.66036379e-01 9.85414624e-01 9.87202227e-01 9.92235005e-01 9.94477451e-01 9.87843394e-01 -1. 9.59602952e-01 9.31922078e-01 9.29647863e-01 9.32076693e-01 9.98306990e-01 1.02930486e+00 1.05271435e+00 1.07344079e+00 1.08165681e+00 1.09168780e+00 1.09402359e+00 -1. -1. -1. -1. -1. -1. -1. -1. -1. 1.05647445e+00 1.06585121e+00 1.06344748e+00 1.05586863e+00 1.05279410e+00 1.03483689e+00 1.03545868e+00 1.03079426e+00 1.03294480e+00 1.02757764e+00 1.04988539e+00 9.96208072e-01 -1. -1. -1. 1.00857544e+00 9.88068759e-01 9.72184956e-01 9.55371499e-01 9.54653800e-01 9.73701298e-01 9.75088596e-01 9.75769579e-01 9.77725387e-01 -1. -1. -1. -1. -1. -1. -1.
    7.77570724e-01 7.85413504e-01 7.53293157e-01 7.29082942e-01 7.27593124e-01 7.12322652e-01 6.99913144e-01 -1. -1. -1. -1. -1. -1. -1. -1. -1. 7.41329551e-01 7.43795335e-01 7.41375268e-01 7.41491079e-01 7.38978088e-01 7.41993725e-01 7.22583115e-01 -1. 7.33055174e-01 -1. -1. -1. -1. -1. -1. -1. -1. -1. -1. -1. -1. -1. -1. -1. -1. -1. -1. -1. -1. -1. -1. -1. -1. -1. -1. -1. -1. -1. -1. -1. -1. -1. -1. -1. -1. -1. -1. -1. -1. 8.33824694e-01 8.63526940e-01 1.08731961e+00 8.09849858e-01 7.87361681e-01 7.85056770e-01 8.27877283e-01 8.77835035e-01 9.50253487e-01 9.15491164e-01 9.13678646e-01 9.07031298e-01 -1. -1. 8.30421329e-01 8.40649188e-01 8.46256077e-01 8.39435399e-01 8.48840535e-01 -1. 8.50212753e-01 8.39582980e-01 8.39983344e-01 8.44904482e-01 -1. -1. -1. -1. -1. -1. -1. -1. -1. -1. 8.35922360e-01 8.48155379e-01 8.43743145e-01 8.48725617e-01 -1. -1. -1. -1. -1. 9.00572240e-01 8.95610809e-01 9.03147757e-01 8.98658812e-01 8.75164807e-01 8.79496813e-01 8.72978985e-01 8.70458364e-01 8.73099327e-01 8.69701028e-01 8.67869675e-01 8.83643866e-01 8.73358667e-01 8.84063005e-01 -1. 9.18591082e-01 9.11890149e-01 9.17559505e-01 9.16881979e-01 9.04327989e-01 9.03049588e-01 9.15368378e-01 9.30107296e-01 9.43189204e-01 9.50006127e-01 9.54434097e-01 9.28641200e-01 9.42075193e-01 9.82047558e-01 1.00178051e+00 1.01323855e+00 9.95781898e-01 9.98431027e-01 1.00745082e+00 9.97144878e-01 9.99216795e-01 9.79521930e-01 9.89056885e-01 9.99900937e-01 9.99243975e-01 1.03269970e+00 1.01084161e+00 1.01112199e+00 1.02143764e+00 1.01462817e+00 1.01815331e+00 -1. 1.01114094e+00 9.84142840e-01 9.98776734e-01 1.00345063e+00 9.99673247e-01 9.97510910e-01 9.98236895e-01 9.92198765e-01 -1. -1. 1.05868590e+00 1.05079687e+00 1.06013834e+00 1.06584477e+00 9.91752088e-01 1.00595856e+00 -1. 9.80280697e-01 9.80326653e-01 9.77502882e-01 9.87188756e-01 9.95315075e-01 8.75007749e-01 9.85651076e-01 9.96121705e-01 9.63239610e-01 1.06281447e+00 1.07638991e+00 1.06057489e+00 9.95113194e-01 -1. 9.57035303e-01 9.33776975e-01 8.89632106e-01 8.38976145e-01 8.49643648e-01 8.37375402e-01 8.03840756e-01 8.11259568e-01 7.79086173e-01 -1. 7.62483716e-01 7.58390069e-01 7.55025923e-01 7.52863050e-01 7.36466467e-01 7.35379577e-01 7.32901096e-01 7.55490005e-01 -1. 7.68225908e-01 7.57329702e-01 7.43630290e-01 7.46388197e-01 7.38545537e-01 7.29267895e-01 7.40353703e-01 7.35214353e-01 7.34390497e-01 7.44787097e-01 7.39079416e-01 7.57211983e-01 7.48183191e-01 7.56468475e-01 7.57270277e-01 7.57475436e-01 -1. -1. -1. 7.30229020e-01 7.36741006e-01 7.33372390e-01 7.26396680e-01 6.86191440e-01 6.76807821e-01 7.26459861e-01 8.66710007e-01 8.70753884e-01 9.58287895e-01 9.97498691e-01 9.92598295e-01 9.60720539e-01 9.37715292e-01 9.19270217e-01 8.96755993e-01 -1. -1. -1. -1. -1. -1. -1. -1. -1. -1. 9.29555297e-01 -1. -1. -1. 9.84862447e-01 -1. -1. 1.00677812e+00 -1. 1.09097040e+00 1.17625928e+00 1.23203564e+00 1.19263172e+00 -1. 1.10484600e+00 1.07837284e+00 1.09155369e+00 1.13862801e+00 1.06787705e+00 1.01715672e+00 1.00133944e+00 1.07396948e+00 9.99712646e-01 1.00448895e+00 1.11598420e+00 1.08823121e+00 9.73376930e-01 1.11172533e+00 9.86340880e-01 9.34256613e-01 9.25223351e-01 -1. -1. -1. -1. -1. -1. -1. -1. -1. -1. -1. 9.21857655e-01 9.25246418e-01 9.28885996e-01 9.37861562e-01 9.42647099e-01 9.64178979e-01 -1. -1. -1. -1. -1. -1. -1. -1. -1. -1. -1. -1. -1. -1. -1. -1. -1. -1. -1. -1. -1. -1. -1. -1. -1. -1. -1. -1. -1. -1. -1. -1. -1. -1. -1. -1. -1. 9.18620110e-01 -1. -1. -1. -1. -1. -1. -1. -1. -1. -1. -1. -1. -1. -1. -1. -1. -1. -1. -1. -1. -1. -1. -1. -1. -1. -1. -1. -1. -1. -1. -1. -1. -1. -1. -1. -1. -1. -1. -1. -1. -1. -1. -1. -1. -1. 9.54774857e-01 9.72494006e-01 9.82011437e-01 9.76861000e-01 9.84546423e-01 9.82563198e-01 9.96395290e-01 9.98075962e-01 9.28028166e-01 9.23075676e-01 9.27211046e-01 1.04833281e+00 9.70994830e-01 1.04464698e+00 1.05377603e+00 1.06355965e+00 1.06725585e+00 1.07947886e+00 1.08290160e+00 1.06440222e+00 -1. -1. -1. -1. -1. -1. -1. 1.04966676e+00 1.04617143e+00 1.02877891e+00 1.02205288e+00 -1. -1. 1.02674448e+00 1.03320920e+00 1.03687823e+00 1.04110849e+00 1.03512537e+00 1.02187335e+00 -1. -1. -1. 1.00398648e+00 9.86173987e-01 9.76820230e-01 9.69958782e-01 9.61636186e-01 1.00782561e+00 1.00689518e+00 9.96910632e-01 -1. -1. -1. -1. -1. -1. -1. -1.
    -1. -1. -1. 7.03599811e-01 7.18571067e-01 7.09211111e-01 7.18891025e-01 7.26029098e-01 -1. -1. -1. -1. -1. -1. -1. -1. -1. -1. 7.33855128e-01 7.15577841e-01 7.30663121e-01 7.19791949e-01 7.20484793e-01 7.20137477e-01 -1. -1. -1. -1. -1. -1. -1. -1. -1. -1. -1. -1. -1. -1. -1. -1. -1. -1. -1. -1. -1. -1. -1. -1. -1. -1. -1. -1. -1. -1. -1. -1. -1. -1. -1. -1. -1. -1. -1. -1. -1. 7.56865859e-01 7.32440054e-01 7.30082929e-01 7.87969112e-01 7.65997708e-01 7.83164024e-01 8.01860034e-01 8.02424312e-01 8.93449128e-01 9.05754387e-01 9.14615870e-01 -1. -1. -1. -1. 8.95843446e-01 8.57667565e-01 8.79364312e-01 8.63453865e-01 8.19347382e-01 8.83440912e-01 8.84344876e-01 8.79935682e-01 8.33690345e-01 -1. -1. -1. -1. -1. -1. -1. -1. -1. -1. 8.33887815e-01 8.30634058e-01 8.31628859e-01 8.37136567e-01 -1. -1. -1. -1. -1. 9.09827411e-01 8.95715714e-01 8.93227756e-01 8.94446731e-01 8.97163391e-01 8.91879201e-01 8.92305076e-01 8.89934242e-01 8.96299362e-01 8.89672756e-01 9.01299119e-01 9.04277325e-01 9.31016743e-01 8.93477678e-01 9.09439981e-01 9.11335468e-01 9.13930416e-01 9.17073727e-01 9.22107279e-01 9.21569169e-01 9.23867404e-01 9.23929691e-01 9.29618537e-01 9.36365664e-01 9.22396719e-01 9.40680742e-01 9.20620680e-01 9.57580805e-01 1.02049923e+00 9.96356905e-01 1.00248885e+00 1.00676620e+00 9.97593939e-01 9.99879122e-01 9.94199395e-01 9.85031605e-01 9.99389052e-01 9.90320742e-01 1.00226951e+00 9.92807984e-01 1.02315032e+00 1.01792562e+00 1.02713192e+00 1.03923452e+00 1.02912617e+00 1.02114606e+00 1.01531279e+00 1.01061571e+00 1.00307667e+00 1.01351762e+00 1.00970113e+00 1.01483691e+00 1.01168954e+00 1.00332284e+00 1.00091577e+00 -1. -1. 1.03041947e+00 1.03100848e+00 1.05556846e+00 1.01887476e+00 1.03445506e+00 1.00556850e+00 -1. 9.82252121e-01 9.82088506e-01 9.49010789e-01 9.71929967e-01 9.69587028e-01 9.95184362e-01 9.94009256e-01 1.07363963e+00 1.03388429e+00 1.07051229e+00 1.05810618e+00 1.01037455e+00 1.00822842e+00 9.81644511e-01 9.68398750e-01 9.21163857e-01 9.17218626e-01 8.78377438e-01 8.40175331e-01 8.35201681e-01 8.23323190e-01 8.07330966e-01 7.60268509e-01 7.68697321e-01 7.63444722e-01 -1. 7.54145682e-01 7.55612671e-01 7.73131251e-01 7.73539007e-01 7.49909580e-01 7.52362132e-01 -1. 7.61273801e-01 7.53987014e-01 7.42658615e-01 7.43125856e-01 7.39139378e-01 7.33847976e-01 7.31587946e-01 7.27321744e-01 7.20880389e-01 7.18381286e-01 7.35184669e-01 7.48667955e-01 7.45786548e-01 7.54310966e-01 7.57581055e-01 7.35434234e-01 7.19689071e-01 7.14985847e-01 7.13091135e-01 7.18944371e-01 7.56944060e-01 7.55942941e-01 6.93656862e-01 7.24997938e-01 7.17366934e-01 7.25477219e-01 8.37907672e-01 8.66532862e-01 9.09798741e-01 9.74167287e-01 9.51120853e-01 9.29617167e-01 9.22328353e-01 9.11496580e-01 9.00686145e-01 -1. -1. -1. -1. 9.24989760e-01 9.23266590e-01 9.22347546e-01 9.22199905e-01 9.30025101e-01 9.27929103e-01 9.39174891e-01 9.58438694e-01 9.83629048e-01 9.88009751e-01 -1. 9.90164578e-01 -1. 9.98713374e-01 1.04478252e+00 1.01807523e+00 1.12465978e+00 1.21975970e+00 1.21272969e+00 1.23439991e+00 1.27320504e+00 1.11641717e+00 1.05622470e+00 1.05976033e+00 1.06381083e+00 1.06193352e+00 1.05019450e+00 1.04969466e+00 1.05664909e+00 1.03671098e+00 1.02763081e+00 1.10517871e+00 1.08767045e+00 1.00515282e+00 9.16502714e-01 1.09635901e+00 1.02024341e+00 -1. -1. -1. -1. -1. -1. -1. -1. -1. -1. -1. 8.97714615e-01 9.29686010e-01 9.05172467e-01 9.86076593e-01 9.49922740e-01 9.74074960e-01 -1. -1. -1. -1. -1. -1. -1. -1. -1. -1. -1. -1. -1. -1. -1. -1. -1. -1. -1. -1. -1. -1. -1. -1. -1. -1. -1. -1. -1. -1. -1. -1. -1. -1. -1. -1. -1. -1. -1. -1. -1. -1. -1. -1. -1. -1. -1. -1. -1. -1. -1. -1. -1. -1. -1. -1. -1. -1. -1. -1. -1. -1. -1. -1. -1. -1. -1. -1. -1. -1. -1. -1. -1. -1. -1. -1. -1. -1. -1. -1. -1. -1. -1. -1. 9.71454859e-01 9.85855401e-01 9.83777881e-01 9.80406821e-01 9.98950481e-01 9.97490764e-01 9.90368545e-01 9.53084350e-01 9.09717441e-01 9.21368420e-01 9.67856050e-01 9.87822115e-01 9.74508047e-01 1.01683927e+00 1.03388894e+00 1.04270887e+00 1.04978037e+00 1.07573867e+00 1.09220302e+00 -1. -1. -1. -1. -1. -1. -1. 1.04547381e+00 1.04542065e+00 1.02442396e+00 -1. -1. -1. 1.04030156e+00 1.03852201e+00 1.05321276e+00 1.04140985e+00 1.03803706e+00 -1. -1. 9.97221708e-01 9.94917870e-01 1.01074982e+00 -1. -1. 9.67979610e-01 9.81741726e-01 9.44495440e-01 9.66290116e-01 -1. -1. -1. -1. -1. -1. -1. -1. -1.
    -1. -1. -1. -1. 7.05234885e-01 7.02458262e-01 6.98544145e-01 7.05261946e-01 7.14316905e-01 -1. -1. -1. -1. -1. -1. -1. -1. -1. -1. -1. 7.21496046e-01 7.18227148e-01 7.21119702e-01 7.14094758e-01 7.17425823e-01 -1. -1. -1. -1. -1. -1. -1. -1. -1. -1. -1. -1. -1. -1. -1. -1. -1. -1. -1. -1. -1. -1. -1. -1. -1. -1. -1. -1. -1. -1. -1. -1. -1. -1. -1. -1. -1. -1. -1. -1. 7.20527172e-01 7.39019692e-01 7.35332131e-01 7.23860621e-01 8.10644984e-01 8.02006006e-01 7.98185587e-01 9.73822832e-01 -1. 9.07138765e-01 9.11234140e-01 -1. -1. -1. -1. 8.53792369e-01 8.42578948e-01 8.50869536e-01 8.09785545e-01 8.93427491e-01 8.79848242e-01 8.72115314e-01 8.88379395e-01 8.28817606e-01 8.34120810e-01 -1. -1. -1. -1. -1. 8.76238763e-01 8.66188288e-01 8.53975117e-01 8.37001503e-01 8.31174195e-01 8.28861177e-01 8.34540904e-01 8.36081743e-01 8.39295745e-01 -1. -1. -1. 9.15503740e-01 9.38702226e-01 9.20835435e-01 8.94074738e-01 8.88520598e-01 8.89605224e-01 8.87683392e-01 8.74965072e-01 8.85540724e-01 8.78530562e-01 -1. 8.93644631e-01 9.22668517e-01 9.22228098e-01 9.04447913e-01 9.13610101e-01 9.11867559e-01 9.15534437e-01 9.19649243e-01 9.20671284e-01 9.23144639e-01 9.15739417e-01 9.33936179e-01 9.34511900e-01 9.51062500e-01 9.45435703e-01 9.57112551e-01 9.31547880e-01 9.12946880e-01 1.00328588e+00 9.95050251e-01 1.01106000e+00 1.00833595e+00 9.95292544e-01 9.91354644e-01 9.70505416e-01 9.73203242e-01 9.71714139e-01 9.44462061e-01 9.62854505e-01 9.74637210e-01 9.95696306e-01 1.00896597e+00 1.06430411e+00 1.04124928e+00 1.04454875e+00 1.01213908e+00 1.02202892e+00 1.02221000e+00 1.01342750e+00 1.01258552e+00 1.01637006e+00 1.02911437e+00 1.02565217e+00 9.80988145e-01 -1. -1. -1. -1. 1.04389858e+00 1.00127149e+00 1.00347233e+00 9.94390547e-01 9.86343145e-01 9.81401265e-01 9.91261482e-01 9.86793578e-01 9.76530254e-01 9.86944199e-01 9.61333096e-01 9.98325765e-01 1.02000606e+00 1.00087667e+00 9.92703080e-01 9.93183911e-01 1.04500818e+00 9.99382973e-01 1.02793109e+00 9.82467592e-01 9.72189486e-01 9.37049210e-01 9.29786146e-01 9.08018172e-01 8.65471065e-01 8.55156064e-01 8.38302910e-01 8.23945463e-01 7.97350883e-01 7.76273668e-01 7.47068584e-01 7.50033438e-01 7.64674962e-01 7.52101660e-01 7.50059664e-01 7.54067183e-01 7.49215245e-01 7.69726872e-01 -1. 7.64360130e-01 7.64073253e-01 7.51112401e-01 7.45131254e-01 -1. 7.33696759e-01 7.24080026e-01 7.29560196e-01 7.26825178e-01 -1. 7.26133466e-01 7.34215856e-01 7.18030989e-01 7.18937635e-01 7.16934919e-01 7.19868481e-01 7.15962648e-01 7.23488390e-01 7.28030324e-01 7.39555478e-01 7.60748327e-01 7.47100592e-01 7.44374454e-01 7.24579155e-01 7.22616017e-01 -1. 7.67834783e-01 8.13749969e-01 8.01126301e-01 8.10613275e-01 9.48600292e-01 9.21978951e-01 9.14400339e-01 8.98313701e-01 9.02715683e-01 9.13572490e-01 9.39134121e-01 9.52627182e-01 9.43847597e-01 9.27389622e-01 9.31678236e-01 9.37905610e-01 9.33446229e-01 9.35246468e-01 9.37824667e-01 9.71029580e-01 9.85492289e-01 9.89781380e-01 9.86872196e-01 9.91881549e-01 9.92184699e-01 9.94584262e-01 9.73407626e-01 1.00328684e+00 9.18985665e-01 1.08451056e+00 1.25287437e+00 1.19340706e+00 1.20445311e+00 1.10374725e+00 1.11822796e+00 1.05948353e+00 1.05826592e+00 1.06601655e+00 1.08269703e+00 1.06735098e+00 1.11117637e+00 1.06175244e+00 1.09033108e+00 1.03593361e+00 1.10612524e+00 1.03142810e+00 1.03092539e+00 1.09508121e+00 1.06161642e+00 1.06645632e+00 1.06202900e+00 -1. -1. -1. -1. -1. -1. -1. -1. -1. 9.16897476e-01 9.14621234e-01 9.64642882e-01 9.46766078e-01 9.70404565e-01 9.58071232e-01 -1. -1. -1. -1. -1. -1. -1. -1. -1. -1. -1. -1. -1. -1. -1. -1. -1. -1. -1. -1. -1. -1. -1. -1. -1. -1. -1. -1. -1. -1. -1. -1. -1. -1. -1. -1. -1. -1. -1. -1. -1. -1. -1. -1. -1. -1. -1. -1. -1. -1. -1. -1. -1. -1. -1. -1. -1. -1. -1. -1. -1. -1. -1. -1. -1. -1. -1. -1. -1. 9.05595303e-01 -1. -1. -1. -1. -1. -1. -1. -1. -1. -1. -1. -1. -1. -1. -1. 9.78628159e-01 9.77608144e-01 9.82591510e-01 9.83749390e-01 9.86704230e-01 9.97281075e-01 9.89059687e-01 9.59972441e-01 9.81750786e-01 9.66852009e-01 9.51634228e-01 9.71351624e-01 9.98340011e-01 1.03777242e+00 1.02110815e+00 1.03819883e+00 1.01391196e+00 1.03763127e+00 1.05015373e+00 -1. -1. -1. -1. -1. -1. -1. -1. -1. -1. -1. -1. -1. 1.03502989e+00 1.04077601e+00 1.03686130e+00 1.05992925e+00 1.03732550e+00 -1. -1. -1. 1.00552499e+00 9.85926390e-01 9.79438543e-01 9.69587922e-01 9.61896837e-01 9.54671860e-01 9.18634176e-01 9.15861487e-01 -1. -1. -1. -1. -1. -1. -1. -1. -1.
    -1. -1. -1. -1. -1. 6.89209223e-01 6.86090112e-01 6.93591833e-01 7.02906370e-01 7.12930977e-01 -1. -1. -1. -1. -1. -1. -1. -1. -1. -1. -1. 7.25782990e-01 7.18427718e-01 7.17985213e-01 -1. -1. -1. -1. -1. -1. -1. -1. 8.20343196e-01 8.18206191e-01 8.11564386e-01 -1. -1. -1. -1. -1. -1. -1. -1. -1. -1. -1. -1. -1. -1. -1. -1. -1. -1. -1. -1. -1. -1. -1. -1. -1. -1. -1. -1. -1. -1. 7.45740414e-01 7.44999349e-01 7.38163590e-01 7.31755555e-01 7.18820155e-01 8.06326568e-01 8.20141494e-01 8.44262123e-01 -1. -1. -1. -1. -1. -1. 9.24605906e-01 9.06813323e-01 8.65403712e-01 8.62439394e-01 8.32998514e-01 8.31792474e-01 8.41029644e-01 8.38732302e-01 8.39681268e-01 8.43142211e-01 8.64716172e-01 8.65227222e-01 8.62961829e-01 8.59670341e-01 -1. 8.99685502e-01 8.88622701e-01 8.57454896e-01 8.60412598e-01 8.45555305e-01 8.32089245e-01 8.33491802e-01 8.32196712e-01 8.29049230e-01 8.35090101e-01 -1. -1. -1. 9.05119836e-01 9.07333434e-01 9.27493036e-01 9.08165574e-01 8.98697913e-01 8.83424163e-01 8.89521003e-01 8.83715928e-01 8.76723051e-01 8.73173654e-01 -1. -1. -1. 9.05124784e-01 9.20416534e-01 9.08429325e-01 9.10713077e-01 9.15485382e-01 9.15305257e-01 9.16823745e-01 9.20348525e-01 9.18205917e-01 9.27132249e-01 9.38295424e-01 9.53582168e-01 9.55561221e-01 9.71338332e-01 9.57983911e-01 9.60621357e-01 9.90293980e-01 9.92155910e-01 9.80821490e-01 9.75643694e-01 9.83869255e-01 9.85514760e-01 9.56729949e-01 9.68067944e-01 9.74372208e-01 9.65712786e-01 9.11885381e-01 9.04520512e-01 9.72725749e-01 1.03306949e+00 1.03563881e+00 1.03489709e+00 1.03240144e+00 1.02869189e+00 1.02563965e+00 1.01985455e+00 1.01250422e+00 1.00580323e+00 1.00999188e+00 1.00227785e+00 9.98364985e-01 9.90928829e-01 -1. -1. -1. 9.83862936e-01 9.77744758e-01 9.83649135e-01 9.86440361e-01 9.81995821e-01 9.86126602e-01 9.70448554e-01 9.91144240e-01 9.77997839e-01 1.00011408e+00 1.00218010e+00 1.06684148e+00 -1. 1.01040006e+00 1.00072360e+00 9.99903202e-01 1.02363336e+00 1.00693607e+00 1.00733531e+00 9.97129261e-01 9.98901486e-01 9.88632858e-01 9.16336179e-01 9.49029863e-01 9.75927353e-01 9.95132267e-01 8.85727942e-01 8.43032718e-01 8.26855540e-01 8.10554683e-01 8.02181780e-01 7.43093967e-01 7.36529469e-01 -1. -1. -1. 7.48652399e-01 7.25221992e-01 7.22740889e-01 7.23183632e-01 7.41615355e-01 7.46596456e-01 7.47344851e-01 7.38717258e-01 -1. 7.36966491e-01 7.32064366e-01 7.34616935e-01 7.28780806e-01 -1. 7.33350813e-01 7.30858505e-01 7.24527895e-01 7.29335010e-01 7.28714526e-01 7.25635827e-01 7.22532928e-01 7.22264111e-01 7.16731727e-01 7.48313725e-01 7.55286455e-01 7.52119243e-01 -1. -1. -1. 7.45737910e-01 7.74176419e-01 8.00372660e-01 8.04634988e-01 8.10898244e-01 8.81044388e-01 8.99271548e-01 9.05377626e-01 8.98304701e-01 9.02211785e-01 9.09657240e-01 9.35484231e-01 9.61163461e-01 9.45381165e-01 9.34748948e-01 9.52440023e-01 9.70533550e-01 9.69516873e-01 9.96009111e-01 9.83393967e-01 1.01219440e+00 1.02722812e+00 1.00093460e+00 9.98137712e-01 9.89108086e-01 9.77978110e-01 9.99245405e-01 9.58968520e-01 1.02355397e+00 1.03202808e+00 1.03557658e+00 1.10984445e+00 1.24351799e+00 1.13173783e+00 1.24424970e+00 1.06812239e+00 1.07247818e+00 1.06498623e+00 1.06481206e+00 1.05738866e+00 1.06330502e+00 1.06665969e+00 1.09988952e+00 1.10015154e+00 1.09864902e+00 1.01546657e+00 1.14772058e+00 1.14229119e+00 1.07690203e+00 1.07201040e+00 1.07736206e+00 -1. -1. -1. -1. -1. -1. -1. -1. -1. -1. -1. 9.35505867e-01 9.54030514e-01 9.52808499e-01 9.51584101e-01 -1. -1. -1. -1. -1. -1. -1. -1. -1. -1. -1. -1. -1. -1. -1. -1. -1. -1. -1. -1. -1. -1. -1. -1. -1. -1. -1. -1. -1. -1. -1. -1. -1. -1. -1. -1. -1. -1. -1. -1. -1. -1. -1. -1. -1. -1. -1. -1. -1. -1. -1. -1. -1. -1. -1. -1. -1. -1. -1. -1. -1. -1. -1. -1. -1. -1. -1. -1. 9.06715572e-01 9.13176179e-01 9.12785590e-01 9.13946450e-01 -1. -1. -1. -1. -1. -1. -1. -1. -1. -1. 9.53311563e-01 9.40307260e-01 9.44925606e-01 9.46451426e-01 9.53393936e-01 9.79436815e-01 9.76008117e-01 9.74305749e-01 9.82689857e-01 9.81976151e-01 9.82717812e-01 9.36055660e-01 9.30055201e-01 9.60267067e-01 9.52134728e-01 9.73568618e-01 9.83169198e-01 1.00934756e+00 9.65566814e-01 1.00212133e+00 1.01261723e+00 1.01590633e+00 1.09284735e+00 -1. -1. -1. -1. -1. -1. -1. -1. -1. -1. -1. 1.04176378e+00 1.04077184e+00 1.03235519e+00 1.03524184e+00 1.03788030e+00 1.04086912e+00 1.01942956e+00 -1. -1. -1. 9.93792653e-01 9.80893850e-01 9.77794230e-01 9.68404353e-01 9.72090781e-01 9.76985753e-01 9.50970948e-01 9.52939391e-01 -1. -1. -1. -1. -1. -1. -1. -1. -1.
    -1. 7.22476661e-01 7.21594274e-01 7.23763227e-01 -1. -1. 6.98920608e-01 7.14622796e-01 7.03340709e-01 7.06297398e-01 -1. -1. -1. 7.12916017e-01 -1. 7.05693543e-01 7.36959696e-01 7.31989145e-01 7.22464144e-01 -1. -1. -1. -1. -1. -1. -1. -1. -1. -1. -1. -1. 8.10865641e-01 8.12582850e-01 8.20492089e-01 8.19319725e-01 7.88332522e-01 7.88130105e-01 -1. -1. -1. -1. -1. -1. -1. -1. -1. -1. -1. -1. -1. -1. -1. -1. -1. -1. 9.43110645e-01 -1. 9.28321242e-01 -1. -1. -1. -1. -1. 8.03129435e-01 -1. 7.79339910e-01 7.67459571e-01 7.24325597e-01 7.62574196e-01 7.27333367e-01 8.10083687e-01 8.05811286e-01 8.39226961e-01 -1. -1. -1. -1. -1. -1. -1. 8.85714769e-01 8.70398581e-01 8.56655240e-01 8.55927467e-01 8.48112881e-01 8.48246634e-01 8.43489349e-01 8.52373123e-01 8.48558486e-01 8.55898499e-01 8.48638296e-01 8.41917813e-01 8.51152956e-01 -1. 9.00934637e-01 8.93516183e-01 8.76622260e-01 8.64639223e-01 8.48127842e-01 8.47976029e-01 8.47358882e-01 8.40730429e-01 8.48871529e-01 8.42113614e-01 -1. -1. -1. 9.01337385e-01 8.86792064e-01 8.95879388e-01 8.88421834e-01 8.98261189e-01 8.85136724e-01 8.81276190e-01 8.81418228e-01 8.87543917e-01 8.89907300e-01 8.83105814e-01 -1. -1. 9.07810628e-01 9.14534509e-01 9.10811424e-01 9.13768828e-01 9.15416718e-01 9.16685283e-01 9.18479383e-01 9.22189355e-01 9.20731187e-01 9.34444785e-01 -1. -1. -1. 9.79967833e-01 9.57993090e-01 9.60069776e-01 9.81360316e-01 1.00302863e+00 9.90732789e-01 9.88916516e-01 -1. -1. -1. 9.64052677e-01 9.37378347e-01 9.42955732e-01 9.70747411e-01 9.63634491e-01 -1. 9.88752544e-01 9.78276551e-01 1.03818631e+00 1.03185976e+00 1.03144228e+00 1.03408372e+00 1.01648235e+00 1.01227891e+00 9.99460995e-01 9.88973975e-01 9.78878379e-01 9.72695410e-01 9.67701674e-01 -1. -1. 9.77147400e-01 1.01825869e+00 9.08489943e-01 8.95342886e-01 9.87122238e-01 8.95653844e-01 9.54119265e-01 9.59048033e-01 9.74949419e-01 9.99645948e-01 1.00299633e+00 1.03661823e+00 1.04481089e+00 1.03243899e+00 1.00556815e+00 1.00853693e+00 1.00134015e+00 1.00467718e+00 1.00935340e+00 1.00050926e+00 1.00446403e+00 9.96222854e-01 9.89479363e-01 9.82034564e-01 9.67172503e-01 9.63783205e-01 9.57557976e-01 9.20253336e-01 8.84325922e-01 1.00606322e+00 8.25132251e-01 7.86325395e-01 7.51245916e-01 7.90308118e-01 7.59939194e-01 7.47533619e-01 7.42822230e-01 7.45867014e-01 7.56200314e-01 7.67144263e-01 7.36375988e-01 7.28004575e-01 7.29789078e-01 7.32623696e-01 7.30189562e-01 7.32784092e-01 -1. -1. -1. -1. -1. 7.31836557e-01 7.33357072e-01 7.30851531e-01 7.31033623e-01 7.32467711e-01 7.33089507e-01 7.34039903e-01 7.27033556e-01 7.54980803e-01 7.45822549e-01 -1. -1. -1. -1. -1. 7.23420262e-01 7.70499468e-01 7.91341841e-01 8.01971912e-01 8.14522624e-01 8.51705968e-01 9.13055718e-01 9.10446405e-01 9.06418025e-01 9.11654115e-01 9.00538862e-01 9.24669504e-01 9.48936284e-01 9.38006997e-01 9.40845966e-01 9.78558779e-01 1.00456119e+00 1.03730595e+00 1.04604542e+00 1.05353022e+00 1.03070045e+00 9.03380871e-01 9.60726321e-01 1.03105891e+00 9.60973978e-01 9.84056115e-01 1.02624714e+00 1.10515666e+00 1.08547711e+00 1.09587598e+00 1.06449842e+00 1.04773355e+00 1.05981135e+00 1.05908346e+00 1.05654275e+00 1.05831611e+00 1.05699253e+00 1.05668473e+00 1.05457807e+00 1.09096670e+00 1.07537091e+00 1.11536300e+00 1.05013764e+00 1.04018414e+00 1.03167343e+00 1.13536108e+00 1.13938117e+00 1.14070523e+00 1.07549191e+00 1.01771355e+00 1.05293930e+00 -1. -1. -1. -1. -1. -1. -1. -1. -1. -1. -1. 9.72421646e-01 9.62719798e-01 9.55902100e-01 9.55488384e-01 -1. -1. -1. -1. -1. -1. -1. -1. -1. 1.11845124e+00 -1. -1. -1. -1. -1. -1. -1. -1. -1. -1. -1. -1. -1. -1. -1. -1. -1. -1. -1. -1. -1. -1. -1. -1. -1. -1. -1. -1. -1. -1. -1. -1. -1. -1. -1. -1. -1. -1. -1. -1. -1. -1. -1. -1. -1. -1. -1. -1. -1. -1. -1. -1. -1. -1. -1. -1. -1. 8.93410087e-01 8.99739981e-01 9.18078780e-01 9.15546715e-01 -1. -1. -1. -1. -1. -1. -1. -1. -1. -1. -1. 9.64239597e-01 9.43259656e-01 8.96689355e-01 9.13196921e-01 -1. 9.81236577e-01 9.71643925e-01 9.74105060e-01 9.84280229e-01 9.66503441e-01 9.97135043e-01 9.38881755e-01 9.40097332e-01 8.79579425e-01 9.39683259e-01 9.41150069e-01 -1. -1. -1. 9.90658641e-01 9.98295367e-01 1.01643729e+00 -1. -1. -1. -1. -1. -1. -1. 8.78801286e-01 -1. 8.70474815e-01 -1. 8.50448608e-01 8.42572570e-01 9.16367233e-01 9.50851202e-01 1.00476027e+00 1.04714203e+00 1.03452730e+00 1.03412306e+00 -1. -1. -1. -1. 9.65269029e-01 9.43553329e-01 9.59260464e-01 9.77263033e-01 9.79490459e-01 9.76922989e-01 9.74646270e-01 -1. -1. -1. -1. -1. -1. -1. -1. -1.</data></Depth>
</opencv_storage>
