<?xml version="1.0"?>
<opencv_storage>
<Depth type_id="opencv-matrix">
  <rows>19</rows>
  <cols>491</cols>
  <dt>f</dt>
  <data>
    8.60704362e-01 8.72370183e-01 8.74946773e-01 8.49989891e-01 8.84394586e-01 0. 0. 8.59161854e-01 8.78065169e-01 8.51599455e-01 8.47546637e-01 8.43356848e-01 8.26354444e-01 8.22393835e-01 8.18404615e-01 8.23157191e-01 8.24843407e-01 8.22676539e-01 8.43750596e-01 8.70625854e-01 8.86722624e-01 9.05182600e-01 9.47912216e-01 8.52110863e-01 9.16153967e-01 0. 8.67248178e-01 8.64328206e-01 8.67547810e-01 8.65036607e-01 8.72007370e-01 8.73649955e-01 9.60286736e-01 9.54039514e-01 8.81014049e-01 8.95465136e-01 8.90407264e-01 8.88310850e-01 8.89643550e-01 8.93721759e-01 8.95644486e-01 8.96816671e-01 9.01142478e-01 9.09284890e-01 0. 9.54358101e-01 9.61561859e-01 9.36511278e-01 9.43674028e-01 9.50175703e-01 9.39853728e-01 9.76855993e-01 9.70889568e-01 9.59834039e-01 9.49195385e-01 9.66519594e-01 9.61045623e-01 9.57597196e-01 9.48054910e-01 9.57423627e-01 9.39735472e-01 9.46131825e-01 9.39683378e-01 9.31996703e-01 9.45542037e-01 9.52660680e-01 9.86682653e-01 1.00281000e+00 1.00292599e+00 1.02398133e+00 1.01468086e+00 1.01109648e+00 1.00376856e+00 1.00203347e+00 9.76312518e-01 9.79281306e-01 9.76474106e-01 0. 0. 9.38891232e-01 9.31266665e-01 9.37291682e-01 9.57992673e-01 9.59454417e-01 9.71100271e-01 9.63931143e-01 9.60859716e-01 9.67133880e-01 9.63241696e-01 9.63393033e-01 9.50031519e-01 9.87168908e-01 1.02979684e+00 1.00090885e+00 9.98798847e-01 9.93415833e-01 9.92932439e-01 9.95826662e-01 9.86218274e-01 9.87123370e-01 9.86302912e-01 9.76646364e-01 9.97644842e-01 9.72726882e-01 9.54320610e-01 9.91846502e-01 7.91141152e-01 7.64673769e-01 0. 0. 0. 0. 0. 0. 0. 0. 7.28037834e-01 7.19960570e-01 7.22740889e-01 7.19352424e-01 7.11684406e-01 7.04321861e-01 6.99716508e-01 7.03400850e-01 7.00648904e-01 6.96605921e-01 6.97442293e-01 0. 0. 0. 0. 0. 0. 0. 0. 0. 0. 0. 0. 0. 0. 6.93128228e-01 7.05320179e-01 6.93909705e-01 6.93784237e-01 6.96098745e-01 7.33577251e-01 8.31051886e-01 9.40806925e-01 9.36699033e-01 9.22931254e-01 9.42884326e-01 9.66443717e-01 9.81807649e-01 9.90548909e-01 1.00620890e+00 1.00364292e+00 1.00386310e+00 1.05986845e+00 8.66055727e-01 8.86779785e-01 8.97243440e-01 9.09749389e-01 9.15462971e-01 9.22228634e-01 9.03207958e-01 9.53565359e-01 1.04078054e+00 9.89467204e-01 9.82096672e-01 9.77943540e-01 9.37169075e-01 9.01878059e-01 9.65034544e-01 1.01283109e+00 1.04937303e+00 1.06754601e+00 1.05368316e+00 1.04147804e+00 1.03945434e+00 1.04123294e+00 1.04986012e+00 1.04874778e+00 1.05767477e+00 1.05155885e+00 1.03105402e+00 1.03294086e+00 1.02946043e+00 1.07341444e+00 9.89018321e-01 1.07911873e+00 1.08093774e+00 1.04709363e+00 1.07991517e+00 1.04567385e+00 0. 0. 0. 0. 0. 0. 0. 0. 0. 0. 0. 0. 0. 0. 0. 0. 0. 0. 0. 0. 0. 0. 0. 0. 0. 0. 1.07653761e+00 1.06511676e+00 1.06808686e+00 0. 0. 0. 0. 0. 0. 0. 0. 0. 0. 0. 0. 0. 0. 0. 0. 0. 0. 0. 0. 0. 0. 0. 0. 0. 0. 0. 0. 0. 0. 0. 0. 0. 0. 0. 0. 0. 0. 0. 0. 0. 0. 0. 0. 0. 0. 0. 0. 0. 0. 0. 0. 0. 0. 0. 0. 0. 0. 0. 0. 0. 0. 0. 0. 0. 0. 0. 0. 0. 0. 0. 0. 9.59462881e-01 9.62498903e-01 9.57189441e-01 9.69934642e-01 9.66142118e-01 9.59654629e-01 0. 0. 0. 0. 8.73046339e-01 8.71872663e-01 8.61204207e-01 8.68549824e-01 8.69224727e-01 9.18455422e-01 1.02106214e+00 1.14913070e+00 1.15853536e+00 1.15932381e+00 1.14588904e+00 0. 0. 0. 0. 0. 0. 0. 0. 0. 0. 0. 0. 1.00580931e+00 1.00543511e+00 1.00794101e+00 1.01984465e+00 1.01766026e+00 0. 1.05270588e+00 1.06150591e+00 1.00503671e+00 0. 9.73692477e-01 9.36836064e-01 9.36155140e-01 9.37857866e-01 9.37148452e-01 9.55942631e-01 9.36700284e-01 9.86806452e-01 1.03856564e+00 1.09655035e+00 1.14155173e+00 1.15593386e+00 1.13761866e+00 1.10208988e+00 1.11481357e+00 1.12154651e+00 0. 0. 0. 0. 0. 0. 0. 0. 0. 0. 0. 0. 0. 0. 0. 0. 0. 0. 0. 0. 0. 0. 1.05745947e+00 0. 1.05511510e+00 0. 0. 0. 0. 0. 0. 7.86983848e-01 7.88776100e-01 7.86889434e-01 7.81299353e-01 0. 0. 0. 7.63544261e-01 7.67585158e-01 7.72601724e-01 7.81940103e-01 7.72535324e-01 7.58046508e-01 0. 0. 0. 0. 0. 0. 0. 0. 0. 0. 0. 0. 0. 0. 0. 0. 0. 0. 0. 0. 0. 0. 0. 0. 0. 0. 0. 0. 0. 8.52626026e-01 8.57081175e-01 8.70789409e-01 8.75491261e-01 8.81030619e-01 0. 0. 0. 0. 0. 0. 0. 0. 0. 0. 1.14970493e+00 1.12898397e+00 0. 1.16031873e+00 1.12806559e+00 1.09096444e+00 1.06422687e+00 1.07716060e+00 1.06577384e+00 1.05172336e+00 1.05711842e+00 0. 0. 0. 0. 0. 0. 0. 9.29503560e-01 9.27508533e-01 9.28211689e-01 9.38412368e-01 9.26226079e-01 9.31812346e-01 0. 0. 0. 0. 0. 0. 0. 0. 0. 0. 0. 0. 0. 0. 0. 0. 0. 0. 0. 0. 0. 0. 0. 0.
    8.66001129e-01 8.52229297e-01 8.24740887e-01 8.25806201e-01 8.37744415e-01 8.31854761e-01 0. 8.70806396e-01 8.66475701e-01 8.59798551e-01 8.54227662e-01 8.28771591e-01 8.31555247e-01 8.27844083e-01 8.24382663e-01 8.20707381e-01 8.22043836e-01 8.42392862e-01 8.63538921e-01 8.89657497e-01 8.84870708e-01 9.46742356e-01 8.37668538e-01 9.14026022e-01 9.17470992e-01 0. 8.65154386e-01 8.71299744e-01 8.72169375e-01 8.71562719e-01 8.66618216e-01 8.89470160e-01 9.56091285e-01 9.21790719e-01 9.12663937e-01 9.06812549e-01 9.08769727e-01 9.01057661e-01 8.89087975e-01 8.95131707e-01 9.02161777e-01 8.95750999e-01 9.02841270e-01 0. 0. 0. 0. 0. 0. 0. 9.42129493e-01 9.84020114e-01 9.69259083e-01 9.52212572e-01 9.49772596e-01 0. 0. 0. 9.29162800e-01 9.59949493e-01 8.56654882e-01 9.42558944e-01 9.13413405e-01 9.65868354e-01 9.70837295e-01 9.76541221e-01 9.04972017e-01 1.00943696e+00 1.01625013e+00 1.01660645e+00 1.02789044e+00 1.01901650e+00 1.00139427e+00 9.87225473e-01 9.81922507e-01 9.77299273e-01 9.75364864e-01 9.61957395e-01 0. 9.22995746e-01 9.23686922e-01 9.25328612e-01 9.36715126e-01 9.50582922e-01 9.53268230e-01 9.62191880e-01 9.68461275e-01 9.70862448e-01 9.71716940e-01 9.72203135e-01 9.81268704e-01 9.82160330e-01 9.89977479e-01 9.97401237e-01 9.83371377e-01 9.92059588e-01 9.88046169e-01 9.91035581e-01 1.01035714e+00 9.71850455e-01 9.79292870e-01 9.82309163e-01 9.75598991e-01 9.36633646e-01 9.21239913e-01 8.86295617e-01 8.24186563e-01 7.87278235e-01 0. 0. 0. 7.18735874e-01 7.14499474e-01 0. 0. 0. 0. 7.12950885e-01 7.16061354e-01 7.09178984e-01 7.13238716e-01 7.03303099e-01 7.03045428e-01 7.02839017e-01 7.01586246e-01 0. 0. 0. 0. 0. 0. 0. 0. 0. 0. 0. 0. 0. 0. 0. 0. 0. 6.99453056e-01 6.98981166e-01 6.99476898e-01 6.97619617e-01 7.01059222e-01 7.58108616e-01 8.88689995e-01 9.28705156e-01 9.17755842e-01 9.11861420e-01 1.01619279e+00 9.36037183e-01 9.25015926e-01 9.18674409e-01 9.28822637e-01 9.21530545e-01 8.99880350e-01 8.87096584e-01 8.84507835e-01 8.78771186e-01 8.81905913e-01 8.74467373e-01 9.43226218e-01 9.66692686e-01 9.97556329e-01 1.03462183e+00 1.01421297e+00 1.01032460e+00 9.85632300e-01 9.66749728e-01 9.62129831e-01 9.13658381e-01 1.03405869e+00 1.07956362e+00 1.08404922e+00 1.06349635e+00 1.04663885e+00 1.03549910e+00 1.03329039e+00 1.02930105e+00 1.03421450e+00 1.03471339e+00 1.03090537e+00 1.02884245e+00 1.01129866e+00 1.02196968e+00 1.07975292e+00 1.08953309e+00 1.08208394e+00 9.94420469e-01 9.88612473e-01 9.84807253e-01 1.01608992e+00 0. 0. 0. 0. 0. 0. 0. 0. 0. 0. 0. 0. 0. 0. 0. 0. 0. 0. 0. 0. 0. 0. 0. 0. 0. 1.06803060e+00 1.05191040e+00 1.07966590e+00 1.06100368e+00 0. 0. 0. 0. 0. 0. 0. 0. 0. 0. 0. 0. 0. 0. 0. 0. 0. 0. 0. 0. 0. 0. 0. 0. 0. 0. 0. 0. 0. 0. 0. 0. 0. 0. 0. 0. 0. 0. 0. 0. 0. 0. 0. 0. 0. 0. 0. 0. 0. 0. 0. 0. 0. 0. 0. 0. 0. 0. 0. 0. 0. 0. 0. 0. 8.57942283e-01 8.66653323e-01 8.75772536e-01 0. 0. 0. 0. 0. 9.45641696e-01 9.54037249e-01 9.55259681e-01 9.58767295e-01 9.66289759e-01 9.64601278e-01 0. 0. 0. 0. 8.69965613e-01 8.68453622e-01 8.72366726e-01 8.88616383e-01 9.17742193e-01 9.04381514e-01 9.84163940e-01 1.13302600e+00 1.11257136e+00 1.14236474e+00 0. 0. 0. 0. 0. 0. 0. 0. 0. 0. 0. 0. 0. 0. 1.00268626e+00 1.01283050e+00 1.01104736e+00 1.01230991e+00 1.02992582e+00 1.08277202e+00 0. 0. 1.00716794e+00 9.77870584e-01 9.50578153e-01 9.36438322e-01 9.38740432e-01 9.42788422e-01 9.51681376e-01 9.41790938e-01 1.06696665e+00 1.06069028e+00 1.05537415e+00 1.10256267e+00 1.07920361e+00 1.07689524e+00 1.09245062e+00 1.09687543e+00 1.10781562e+00 0. 0. 0. 0. 0. 0. 0. 0. 0. 0. 0. 0. 0. 0. 0. 0. 0. 0. 0. 0. 0. 0. 0. 0. 0. 0. 0. 0. 0. 0. 0. 0. 7.92500019e-01 7.92991102e-01 7.89118707e-01 0. 0. 0. 0. 7.61036038e-01 7.59449422e-01 7.46395290e-01 7.41546273e-01 7.48720586e-01 7.36646533e-01 8.07461739e-01 0. 0. 0. 0. 0. 0. 0. 0. 0. 0. 0. 0. 0. 0. 0. 0. 0. 0. 0. 0. 0. 0. 0. 0. 0. 0. 0. 8.65738630e-01 8.69303823e-01 8.82001042e-01 8.79033506e-01 8.83051693e-01 0. 0. 0. 0. 0. 1.41204786e+00 1.46467543e+00 1.39809024e+00 1.37884021e+00 0. 1.16934764e+00 1.17429757e+00 1.16232073e+00 0. 0. 1.04766822e+00 9.95922923e-01 9.89479482e-01 1.00863647e+00 1.04107726e+00 1.09042001e+00 0. 0. 0. 0. 0. 0. 9.56699908e-01 9.54977810e-01 9.53877330e-01 9.51385736e-01 9.42642868e-01 9.51803923e-01 9.52474654e-01 0. 0. 0. 0. 0. 0. 0. 0. 0. 0. 0. 0. 0. 0. 0. 0. 0. 0. 0. 0. 0. 0. 0. 0.
    8.58469605e-01 8.43973339e-01 8.24951470e-01 8.33138227e-01 8.29045177e-01 8.23513150e-01 0. 8.72172654e-01 8.51319194e-01 8.33818555e-01 8.26907098e-01 8.24605525e-01 8.09981585e-01 8.29427779e-01 8.30754161e-01 8.36182356e-01 8.22228193e-01 8.70780766e-01 8.78302217e-01 8.79606485e-01 8.84584367e-01 8.67227256e-01 8.61698151e-01 8.55281353e-01 9.00049567e-01 8.98986459e-01 8.60662043e-01 8.74702096e-01 8.72664988e-01 8.69120717e-01 8.71207774e-01 8.69539380e-01 8.73373985e-01 8.92784834e-01 8.88712049e-01 8.87593389e-01 8.93846452e-01 9.03961122e-01 9.05886829e-01 9.11069155e-01 9.13572669e-01 9.11663532e-01 9.29003417e-01 0. 0. 0. 0. 0. 0. 0. 0. 9.74470675e-01 9.68297720e-01 9.43947136e-01 0. 0. 0. 0. 9.08254147e-01 8.57651949e-01 8.50328743e-01 8.52090955e-01 8.56943846e-01 9.33551192e-01 9.33846116e-01 9.24073935e-01 9.54850197e-01 1.03870022e+00 1.03151035e+00 1.02081168e+00 1.02459073e+00 1.00910652e+00 9.97338116e-01 9.73037422e-01 9.65148211e-01 9.56185222e-01 9.28657115e-01 9.16996598e-01 9.33221102e-01 9.20054615e-01 8.97176743e-01 9.07832980e-01 9.24100459e-01 9.12503004e-01 9.54681396e-01 9.55611289e-01 9.65490818e-01 9.73268032e-01 0. 0. 9.97811913e-01 9.98371899e-01 9.91378903e-01 9.90969718e-01 9.83516037e-01 9.81477976e-01 9.83180821e-01 9.85454679e-01 9.40049112e-01 9.90206301e-01 9.62705135e-01 9.92281258e-01 9.81211424e-01 9.78264689e-01 8.63390863e-01 7.43625641e-01 7.67992377e-01 7.59158432e-01 0. 0. 0. 7.24387527e-01 7.24861145e-01 7.29595184e-01 0. 0. 0. 7.07283437e-01 7.12093353e-01 7.05434501e-01 7.06542492e-01 7.04104066e-01 7.06176817e-01 7.02814877e-01 6.97464645e-01 0. 0. 0. 0. 0. 0. 0. 0. 0. 0. 0. 0. 0. 0. 0. 0. 0. 0. 0. 6.98219180e-01 7.03104079e-01 7.04136550e-01 7.60220528e-01 9.08786356e-01 9.30976152e-01 9.07551646e-01 9.05965090e-01 9.08921182e-01 9.00034904e-01 9.08750832e-01 8.74226153e-01 8.95523727e-01 9.40630972e-01 8.80529642e-01 8.81833971e-01 8.81065309e-01 8.80524755e-01 8.83368909e-01 1.01774061e+00 1.01415145e+00 1.00551832e+00 1.05277407e+00 1.04083467e+00 1.04068148e+00 1.01870489e+00 1.01878452e+00 9.81929362e-01 9.76347744e-01 1.02792704e+00 1.15080571e+00 1.14504516e+00 1.10174572e+00 1.07299566e+00 1.04866040e+00 1.03563941e+00 1.03122973e+00 1.03125358e+00 1.02678716e+00 1.03146207e+00 1.03041279e+00 1.03055739e+00 1.02997637e+00 1.07227445e+00 1.07844687e+00 1.08186603e+00 1.06727290e+00 1.00724399e+00 1.00159836e+00 9.94441688e-01 9.80781436e-01 0. 0. 0. 0. 0. 0. 0. 0. 0. 0. 0. 0. 0. 0. 0. 0. 0. 0. 0. 0. 0. 0. 0. 0. 0. 1.07089448e+00 1.07225859e+00 1.05622780e+00 1.07372236e+00 0. 0. 0. 0. 0. 0. 0. 0. 0. 0. 0. 0. 0. 0. 0. 0. 0. 0. 0. 0. 0. 0. 0. 0. 0. 0. 0. 0. 0. 0. 0. 0. 0. 0. 0. 0. 0. 0. 0. 0. 0. 0. 0. 0. 0. 0. 0. 0. 0. 7.14141488e-01 0. 7.20474422e-01 7.15370238e-01 0. 0. 0. 7.33438909e-01 7.34331071e-01 7.35111237e-01 0. 0. 0. 0. 0. 8.56150150e-01 8.68793070e-01 0. 9.03408825e-01 8.80068958e-01 8.80975008e-01 8.86124909e-01 8.86010945e-01 9.41013992e-01 9.72457170e-01 9.86162305e-01 9.76433992e-01 9.69727099e-01 9.82241750e-01 0. 0. 0. 0. 8.73244166e-01 8.70695412e-01 8.76478732e-01 8.78104627e-01 9.40194786e-01 9.32032228e-01 9.57450211e-01 9.53601480e-01 9.60035443e-01 9.54570711e-01 0. 0. 0. 0. 0. 0. 0. 0. 0. 0. 8.38213265e-01 8.52836728e-01 8.89267981e-01 8.68531823e-01 1.00326264e+00 1.00926983e+00 1.00716031e+00 9.98075008e-01 9.96706903e-01 9.92982745e-01 1.17647326e+00 1.07927907e+00 1.00823593e+00 9.86378908e-01 9.39278901e-01 9.40873265e-01 9.39535737e-01 9.32673275e-01 9.31283414e-01 9.30928290e-01 1.01918471e+00 1.10605097e+00 1.12134826e+00 1.10659647e+00 1.09418964e+00 1.07291961e+00 1.06749940e+00 1.08448005e+00 0. 0. 0. 0. 0. 0. 0. 0. 0. 0. 0. 0. 0. 0. 0. 0. 0. 0. 0. 0. 0. 0. 0. 0. 0. 0. 0. 0. 0. 0. 0. 0. 8.00007463e-01 7.90431559e-01 7.85671771e-01 7.78314769e-01 7.73934424e-01 7.78443038e-01 0. 0. 0. 7.51589358e-01 7.45776474e-01 7.51065254e-01 0. 0. 0. 0. 9.96583819e-01 1.01896071e+00 0. 1.01240361e+00 0. 0. 0. 0. 0. 0. 0. 0. 0. 0. 0. 0. 0. 0. 0. 0. 0. 0. 0. 0. 0. 0. 0. 0. 8.29812765e-01 8.25679660e-01 8.67240191e-01 0. 0. 0. 0. 1.42732859e+00 1.41496527e+00 1.39599168e+00 1.38400352e+00 0. 0. 0. 0. 0. 0. 0. 0. 9.54223812e-01 6.76736712e-01 1.03009713e+00 1.02450156e+00 1.04575861e+00 1.02237439e+00 0. 0. 0. 0. 0. 9.64389145e-01 9.61876988e-01 9.61413860e-01 9.57342923e-01 9.56534743e-01 9.55571651e-01 9.51673746e-01 0. 0. 0. 0. 0. 0. 0. 0. 0. 0. 0. 0. 0. 0. 0. 0. 0. 0. 0. 0. 0. 0. 0. 0.
    8.53569746e-01 8.34468246e-01 8.32538664e-01 8.33234310e-01 8.34203601e-01 8.15419376e-01 8.32914352e-01 0. 8.37868750e-01 8.26465726e-01 8.27810347e-01 8.23046684e-01 8.18304479e-01 8.24149549e-01 8.31190467e-01 8.29742432e-01 8.29585969e-01 8.33505929e-01 8.49098980e-01 8.25439095e-01 8.21913600e-01 8.54208946e-01 8.65410805e-01 8.54866803e-01 9.00471926e-01 8.89548242e-01 8.61577690e-01 8.67536902e-01 8.65564704e-01 8.67177069e-01 8.69123518e-01 8.71358037e-01 8.69846582e-01 8.74259651e-01 8.76572788e-01 8.83791268e-01 8.91474485e-01 8.94736290e-01 9.00000751e-01 9.22244012e-01 8.98601651e-01 9.43780839e-01 0. 0. 0. 0. 0. 0. 0. 0. 0. 0. 9.45698142e-01 9.35264051e-01 9.31258619e-01 9.42438900e-01 0. 0. 9.78149951e-01 8.49655271e-01 8.48849475e-01 8.41608882e-01 8.36730301e-01 8.55989575e-01 8.58243287e-01 8.69778752e-01 0. 9.83719468e-01 9.80373859e-01 1.02694142e+00 1.01974392e+00 1.00644040e+00 9.95678008e-01 9.79215384e-01 9.64152396e-01 9.58479941e-01 9.51093137e-01 9.41274762e-01 9.32976902e-01 9.26342130e-01 9.39110041e-01 9.17802989e-01 9.27776992e-01 9.33474422e-01 9.20900583e-01 9.54826474e-01 9.59847569e-01 0. 0. 0. 9.86012876e-01 9.96730328e-01 9.98748899e-01 9.91967142e-01 9.87533569e-01 0. 9.86302912e-01 1.02248895e+00 9.92221773e-01 9.91828203e-01 1.00033379e+00 1.00030303e+00 9.74751592e-01 1.01593542e+00 8.47360611e-01 7.51923144e-01 7.46270120e-01 7.89001346e-01 7.45020568e-01 7.33265102e-01 7.10138679e-01 7.12288916e-01 7.09225118e-01 7.17114210e-01 0. 0. 7.04628885e-01 7.10303307e-01 7.12026536e-01 7.11867154e-01 7.03965187e-01 7.07370818e-01 7.05820620e-01 6.97868168e-01 6.96352243e-01 0. 0. 0. 0. 0. 0. 0. 0. 0. 0. 0. 0. 0. 0. 0. 0. 0. 0. 7.06319511e-01 7.03644991e-01 7.03005850e-01 7.02914476e-01 8.76112938e-01 8.52406383e-01 9.27378535e-01 9.12778139e-01 8.99736345e-01 9.02138531e-01 8.92513990e-01 8.73452306e-01 8.70042443e-01 8.70686471e-01 0. 0. 8.82504642e-01 8.76369715e-01 8.93276155e-01 8.77847612e-01 1.00274539e+00 9.97513652e-01 1.00639379e+00 1.02239430e+00 1.01889968e+00 1.01241362e+00 0. 0. 9.84554589e-01 9.92597699e-01 1.01937723e+00 1.02339530e+00 1.12422884e+00 1.09363198e+00 1.08413315e+00 1.04477882e+00 1.01996708e+00 1.02050769e+00 1.02627444e+00 1.02454162e+00 1.02860689e+00 1.02217412e+00 1.01632953e+00 1.01419830e+00 9.97228444e-01 1.09331012e+00 1.08283412e+00 1.08152080e+00 1.07963014e+00 1.07562423e+00 1.07231808e+00 1.07636094e+00 0. 0. 0. 0. 0. 0. 0. 0. 0. 0. 0. 0. 0. 0. 0. 0. 0. 0. 0. 0. 0. 0. 0. 0. 1.07210875e+00 1.06841230e+00 1.10674775e+00 0. 1.09619689e+00 1.07573199e+00 1.06997478e+00 0. 0. 0. 0. 0. 0. 0. 0. 0. 0. 0. 0. 0. 0. 0. 0. 0. 0. 0. 0. 0. 0. 0. 0. 0. 0. 0. 0. 0. 0. 0. 0. 0. 0. 0. 0. 0. 0. 0. 0. 0. 0. 0. 0. 0. 0. 7.07511663e-01 0. 7.12071061e-01 7.17926025e-01 7.06679285e-01 0. 0. 0. 0. 7.36921430e-01 7.34847963e-01 7.68474638e-01 8.50476265e-01 9.30285037e-01 0. 8.91570270e-01 8.75887096e-01 8.85558784e-01 8.70780408e-01 8.54921937e-01 8.93740773e-01 8.88987958e-01 8.76850128e-01 9.03413415e-01 9.66624022e-01 9.50316370e-01 9.84919786e-01 9.84645545e-01 9.97583628e-01 0. 0. 0. 0. 0. 8.81471753e-01 8.78180623e-01 8.71651649e-01 8.71626079e-01 8.57546389e-01 8.40999722e-01 9.92772162e-01 9.72964287e-01 9.81343627e-01 9.79893863e-01 0. 0. 0. 0. 9.31884885e-01 9.24990356e-01 8.94300640e-01 0. 0. 8.52172732e-01 8.46514106e-01 8.24454188e-01 8.43867302e-01 8.23660493e-01 1.00842190e+00 1.01351976e+00 1.01210809e+00 1.01869059e+00 1.00994170e+00 1.00075686e+00 1.16724193e+00 1.14775121e+00 1.15859652e+00 9.51212525e-01 9.40973580e-01 9.45244551e-01 9.43147779e-01 9.37946379e-01 9.44769144e-01 9.40843642e-01 1.06094539e+00 1.09653246e+00 1.11476719e+00 1.11804450e+00 1.09154570e+00 1.07251787e+00 1.05332685e+00 1.07035899e+00 1.07707667e+00 0. 0. 0. 0. 0. 0. 0. 0. 0. 0. 0. 0. 0. 0. 0. 0. 0. 0. 0. 0. 0. 0. 0. 0. 0. 0. 0. 0. 0. 0. 0. 0. 0. 0. 7.79169798e-01 7.80942142e-01 7.77907014e-01 0. 0. 7.72413850e-01 7.70151913e-01 7.64279068e-01 0. 7.42011189e-01 7.38044381e-01 0. 0. 9.78586078e-01 1.00509870e+00 0. 1.01031518e+00 0. 0. 0. 0. 0. 0. 0. 0. 0. 0. 0. 0. 0. 0. 0. 0. 0. 0. 0. 0. 0. 0. 0. 0. 8.64971519e-01 8.66204739e-01 8.61027002e-01 0. 0. 0. 1.37029254e+00 1.48114598e+00 1.49724615e+00 1.42213774e+00 1.42256558e+00 0. 0. 0. 0. 0. 0. 0. 0. 0. 6.84943736e-01 6.82745397e-01 6.83720708e-01 6.62468731e-01 7.66928077e-01 0. 0. 0. 0. 0. 9.59246516e-01 9.59731936e-01 9.60089266e-01 9.56640780e-01 9.55648482e-01 9.49031711e-01 0. 0. 0. 0. 0. 0. 0. 0. 0. 0. 0. 0. 0. 0. 0. 0. 0. 0. 0. 0. 0. 0. 0. 0. 0.
    8.34616601e-01 8.22239637e-01 8.36086512e-01 8.17990363e-01 8.24644744e-01 8.31978917e-01 8.39493454e-01 8.32320094e-01 0. 8.27918112e-01 8.25469851e-01 8.31335127e-01 8.31812024e-01 8.32677722e-01 8.34796667e-01 8.37769449e-01 8.70207489e-01 8.43205333e-01 8.39115024e-01 8.30207050e-01 8.13068688e-01 8.14340174e-01 8.59895110e-01 9.06742811e-01 8.95371735e-01 8.92237663e-01 8.67775679e-01 8.65611315e-01 8.66898179e-01 8.66524875e-01 8.65850151e-01 8.69931161e-01 8.71189713e-01 8.76614034e-01 8.86160791e-01 8.81811559e-01 8.86135340e-01 8.96353424e-01 8.99592936e-01 9.09318805e-01 8.74379396e-01 0. 9.10919845e-01 0. 9.21987474e-01 0. 9.18396711e-01 9.25608277e-01 9.25698757e-01 0. 0. 0. 8.55475962e-01 8.59194875e-01 8.59848738e-01 8.74061525e-01 8.77692282e-01 0. 0. 9.60395038e-01 8.39818954e-01 8.36450458e-01 8.36578369e-01 8.40419292e-01 8.44948649e-01 8.45063508e-01 0. 9.59363997e-01 1.00682223e+00 1.01927316e+00 1.00796771e+00 1.00341713e+00 9.94732022e-01 9.97019827e-01 9.84405816e-01 9.27894115e-01 9.31549311e-01 9.60235655e-01 9.37452793e-01 9.34365451e-01 9.25743282e-01 9.19434905e-01 9.23307955e-01 9.28297400e-01 0. 0. 9.51205075e-01 9.71210241e-01 9.65442359e-01 0. 9.54646885e-01 9.84281480e-01 9.88168657e-01 9.64117706e-01 9.58833277e-01 0. 9.90284503e-01 9.90865648e-01 9.87180293e-01 9.98826087e-01 1.00085151e+00 9.80785370e-01 9.54013586e-01 9.91405845e-01 7.65364110e-01 7.48134375e-01 7.50763953e-01 7.52441883e-01 7.41481960e-01 7.35488892e-01 7.04259098e-01 7.43235826e-01 7.32464433e-01 0. 0. 7.17286408e-01 7.20509589e-01 7.18523204e-01 7.11058915e-01 7.01819420e-01 7.04314649e-01 7.09881902e-01 6.92745686e-01 6.93017721e-01 6.92344904e-01 7.00602293e-01 6.85108900e-01 0. 0. 0. 0. 0. 0. 0. 0. 0. 0. 0. 0. 0. 0. 0. 0. 7.16999292e-01 7.06263423e-01 7.13726997e-01 7.07564354e-01 8.67123723e-01 8.89406264e-01 8.93680036e-01 9.08033311e-01 9.04478550e-01 8.95293951e-01 8.74843836e-01 8.92577827e-01 8.82541120e-01 8.72205734e-01 8.65095496e-01 8.64363611e-01 8.72633457e-01 8.77875686e-01 9.00981307e-01 8.81773293e-01 9.90682602e-01 9.90475714e-01 1.01868522e+00 1.03548586e+00 1.02923858e+00 1.02336740e+00 1.00178301e+00 9.84664977e-01 9.80393231e-01 9.80398595e-01 9.83665407e-01 9.83106375e-01 1.09204638e+00 1.04882002e+00 1.03083992e+00 1.03931427e+00 1.04585302e+00 1.03963685e+00 1.03148663e+00 1.03195274e+00 1.03389645e+00 1.04091048e+00 1.02534246e+00 1.00912762e+00 9.91746783e-01 9.93542910e-01 1.08727694e+00 1.04597819e+00 1.02966475e+00 9.78681624e-01 9.73385036e-01 0. 0. 0. 0. 0. 0. 0. 1.00938272e+00 0. 1.00957179e+00 0. 0. 0. 0. 0. 0. 0. 0. 0. 0. 0. 0. 0. 0. 0. 1.07510030e+00 0. 1.10694206e+00 1.14258730e+00 1.11593330e+00 1.12286460e+00 1.11552465e+00 1.12795413e+00 1.12014151e+00 0. 0. 0. 0. 0. 0. 0. 0. 0. 0. 0. 0. 0. 0. 0. 0. 0. 0. 0. 0. 0. 0. 0. 0. 0. 0. 0. 0. 0. 0. 0. 0. 0. 0. 0. 0. 0. 0. 0. 0. 0. 0. 0. 0. 0. 7.10480392e-01 7.10087299e-01 7.04010069e-01 7.32606769e-01 0. 0. 0. 7.23033249e-01 7.34029949e-01 7.47161984e-01 7.85883367e-01 8.45551372e-01 8.85251701e-01 9.35770273e-01 8.96305382e-01 8.78702462e-01 8.59851480e-01 8.30988824e-01 8.51635695e-01 8.47558558e-01 8.48394573e-01 8.63085568e-01 8.81497324e-01 9.31414604e-01 9.68022048e-01 9.87765312e-01 9.94583309e-01 1.01386893e+00 1.11616492e+00 0. 0. 0. 8.94999266e-01 8.88761818e-01 8.80632341e-01 8.76322150e-01 0. 8.56190801e-01 8.71631145e-01 8.71404827e-01 9.06996071e-01 9.30490792e-01 9.43358600e-01 0. 0. 9.31168020e-01 9.28424120e-01 9.23978925e-01 9.06393945e-01 8.85828793e-01 8.88318539e-01 9.46544945e-01 8.42319429e-01 8.37873101e-01 8.32610965e-01 8.47858548e-01 8.89894187e-01 9.22351837e-01 9.83280957e-01 1.03341460e+00 1.04117620e+00 1.00727487e+00 1.03579450e+00 1.08685243e+00 1.10916889e+00 1.13071179e+00 1.00027609e+00 9.49707627e-01 9.24087346e-01 9.49977577e-01 9.39724088e-01 0. 9.65604722e-01 1.02678657e+00 1.07499206e+00 0. 0. 0. 1.05378592e+00 1.06352437e+00 1.06812000e+00 0. 0. 0. 0. 0. 0. 0. 0. 0. 0. 0. 0. 0. 0. 0. 0. 0. 0. 0. 0. 0. 0. 0. 0. 0. 0. 0. 0. 0. 0. 0. 0. 0. 0. 0. 7.69335449e-01 7.64124393e-01 7.75339544e-01 0. 0. 7.67873585e-01 7.76145220e-01 7.70248532e-01 0. 0. 0. 0. 0. 0. 9.87262309e-01 1.01085472e+00 0. 0. 0. 0. 0. 0. 0. 0. 0. 0. 0. 0. 0. 0. 0. 0. 0. 0. 0. 0. 0. 0. 0. 0. 0. 8.91202807e-01 8.60674858e-01 8.62429023e-01 8.83855283e-01 8.62151921e-01 1.25461912e+00 1.37678707e+00 1.36250114e+00 1.47600031e+00 1.50668120e+00 0. 0. 0. 0. 0. 0. 0. 0. 0. 0. 6.87508404e-01 6.85722888e-01 6.80057347e-01 6.72061920e-01 6.96178257e-01 6.96746230e-01 0. 0. 0. 0. 9.50843036e-01 9.53161776e-01 9.59626675e-01 9.57753122e-01 9.64627922e-01 9.70714629e-01 9.68855441e-01 9.51067984e-01 9.38261569e-01 0. 0. 0. 0. 0. 0. 0. 0. 0. 0. 0. 0. 0. 0. 0. 0. 0. 0. 0. 0. 0. 0.
    7.85409451e-01 8.06336939e-01 8.08072567e-01 8.14795077e-01 8.26936305e-01 8.15443695e-01 8.23682487e-01 8.23665142e-01 8.21988344e-01 8.28527749e-01 8.23993742e-01 8.20212424e-01 8.14717770e-01 8.33751678e-01 8.19614291e-01 8.34185421e-01 8.41099024e-01 8.51226151e-01 8.31374943e-01 8.30920219e-01 8.53154719e-01 8.45508158e-01 0. 8.68184447e-01 8.73416007e-01 8.71162176e-01 8.66174102e-01 8.64147544e-01 8.65701258e-01 8.66459608e-01 8.66401374e-01 8.70893121e-01 8.75855565e-01 8.83020282e-01 8.82442594e-01 8.84006858e-01 8.83775711e-01 8.88520122e-01 8.88192415e-01 8.82000327e-01 8.77636433e-01 0. 0. 0. 0. 0. 9.40272689e-01 9.27534163e-01 9.25331831e-01 0. 0. 0. 8.51268709e-01 8.20870757e-01 8.24052274e-01 8.44225943e-01 8.43166232e-01 0. 0. 8.64319444e-01 8.57040882e-01 8.46526325e-01 8.43855500e-01 8.39131832e-01 8.40586185e-01 8.43944073e-01 0. 0. 0. 1.00618541e+00 9.98327076e-01 1.01167583e+00 1.00469756e+00 1.00562537e+00 9.71670270e-01 9.78174090e-01 9.58831847e-01 0. 0. 9.47899818e-01 9.22033906e-01 9.21041667e-01 0. 0. 0. 0. 9.52160120e-01 9.70618784e-01 9.59888995e-01 0. 0. 1.00441885e+00 9.97998655e-01 9.75177228e-01 9.66024935e-01 9.84968901e-01 9.86706316e-01 9.86140847e-01 9.87890482e-01 9.96515870e-01 9.90412772e-01 9.64672506e-01 9.94660914e-01 7.99543321e-01 7.75789142e-01 7.42483497e-01 7.48845637e-01 7.51227796e-01 7.43088365e-01 7.29552329e-01 7.42437482e-01 7.46330917e-01 7.25783706e-01 7.21467912e-01 7.15345740e-01 7.19084740e-01 7.15852439e-01 7.21552014e-01 7.21735954e-01 6.75604284e-01 7.04071939e-01 7.03316212e-01 6.88608468e-01 6.95009470e-01 6.87068582e-01 6.90852165e-01 6.82067275e-01 6.84959769e-01 0. 0. 0. 0. 0. 0. 0. 0. 0. 0. 0. 0. 0. 0. 0. 7.03055322e-01 7.08755732e-01 7.02649832e-01 7.12383807e-01 7.27442563e-01 7.75079489e-01 8.45480859e-01 9.12893474e-01 8.60079825e-01 8.43415141e-01 8.36455584e-01 8.49943101e-01 8.56463075e-01 8.54044139e-01 8.41101944e-01 8.36734414e-01 8.54614675e-01 8.69373202e-01 8.66597652e-01 9.15011346e-01 9.86179411e-01 9.86539185e-01 9.53557670e-01 9.89143908e-01 9.52598512e-01 9.89490449e-01 9.73040462e-01 9.57656801e-01 9.59819257e-01 9.63827074e-01 9.63875651e-01 9.47455168e-01 9.93916094e-01 1.01528144e+00 1.02534533e+00 1.00902879e+00 1.02372169e+00 1.02736354e+00 1.02902269e+00 1.02816439e+00 1.01829517e+00 1.03416121e+00 1.03567243e+00 1.01891780e+00 9.97254670e-01 1.09413421e+00 1.01550770e+00 1.00376272e+00 1.00260186e+00 1.04968083e+00 9.84764636e-01 0. 0. 0. 0. 0. 0. 0. 9.94434416e-01 1.01361418e+00 1.01771390e+00 0. 0. 0. 0. 0. 0. 0. 0. 0. 0. 0. 0. 0. 0. 0. 0. 0. 0. 1.12084436e+00 1.15781891e+00 1.16300488e+00 1.11722064e+00 1.11396134e+00 1.12616670e+00 1.09847414e+00 1.09597027e+00 0. 0. 0. 0. 0. 0. 0. 0. 0. 0. 0. 0. 0. 0. 0. 0. 0. 0. 0. 0. 0. 0. 0. 0. 0. 0. 0. 0. 0. 0. 0. 0. 0. 0. 0. 0. 0. 0. 0. 0. 0. 0. 0. 6.95263445e-01 7.01046348e-01 6.89996898e-01 7.18075275e-01 7.15765357e-01 7.18907416e-01 7.65518308e-01 7.58589089e-01 7.51844347e-01 7.37270951e-01 8.07051837e-01 8.52382898e-01 8.55536640e-01 8.65167260e-01 9.08568144e-01 8.65482688e-01 8.45227540e-01 8.37126374e-01 8.16735625e-01 8.47413301e-01 8.43642235e-01 8.37549388e-01 8.23395967e-01 9.10316527e-01 9.58133996e-01 9.66802180e-01 9.53285158e-01 9.68699455e-01 1.13970661e+00 9.65177298e-01 0. 8.78726065e-01 8.84181023e-01 8.94619882e-01 9.38879430e-01 8.50476980e-01 8.53458881e-01 0. 8.33204687e-01 8.67912233e-01 8.53732407e-01 8.79881203e-01 8.91520321e-01 9.05196786e-01 9.72825944e-01 9.14751232e-01 9.43448067e-01 9.32678461e-01 8.97590876e-01 8.78103793e-01 8.61366153e-01 8.58057141e-01 9.47832882e-01 8.39003026e-01 8.46916854e-01 8.74895811e-01 8.54555190e-01 8.63471925e-01 9.54590023e-01 1.16664016e+00 1.08259094e+00 1.09795916e+00 1.06681824e+00 1.08113372e+00 1.16660547e+00 0. 0. 9.40558910e-01 9.22418654e-01 9.27855492e-01 9.34747458e-01 9.31313992e-01 0. 0. 0. 0. 0. 0. 0. 0. 0. 0. 0. 0. 0. 0. 0. 0. 0. 0. 0. 0. 0. 0. 0. 0. 0. 0. 0. 0. 0. 0. 0. 0. 0. 0. 0. 0. 0. 0. 0. 0. 0. 0. 0. 0. 0. 0. 0. 0. 0. 7.72882819e-01 7.71556258e-01 7.74916351e-01 7.75332808e-01 0. 0. 8.23258758e-01 0. 9.79339182e-01 0. 0. 0. 0. 0. 0. 0. 0. 0. 0. 0. 0. 0. 0. 0. 0. 0. 0. 0. 0. 0. 0. 0. 0. 0. 0. 0. 8.43426943e-01 8.71484101e-01 8.71074617e-01 8.76421034e-01 8.44328523e-01 1.29430091e+00 1.22071445e+00 1.47759473e+00 1.41902387e+00 1.47417271e+00 0. 0. 0. 0. 0. 0. 0. 0. 0. 0. 0. 6.79406703e-01 6.79474115e-01 6.73676610e-01 6.69535756e-01 6.92401707e-01 6.96731567e-01 7.05992579e-01 0. 0. 9.33784783e-01 9.48218048e-01 9.45904553e-01 9.46145117e-01 9.44848716e-01 9.46775615e-01 9.43960488e-01 9.34457600e-01 9.27703857e-01 0. 0. 0. 0. 0. 0. 0. 0. 0. 0. 0. 0. 0. 0. 0. 0. 0. 0. 0. 0. 0. 0.
    8.02886665e-01 8.01477313e-01 8.02423477e-01 8.08930635e-01 8.68660450e-01 8.76481056e-01 8.28717768e-01 8.57825875e-01 8.27746153e-01 8.26192617e-01 8.24633718e-01 8.20655227e-01 7.96002805e-01 8.23251069e-01 8.04449499e-01 8.35561752e-01 8.00725400e-01 8.20454478e-01 8.24923933e-01 8.08425426e-01 8.42228055e-01 8.42903137e-01 8.55301559e-01 8.54296744e-01 8.50342751e-01 8.56813014e-01 8.57698441e-01 8.63258541e-01 8.67510498e-01 8.52139950e-01 8.66385818e-01 8.72144163e-01 8.74501288e-01 8.79251599e-01 8.84238124e-01 8.82107615e-01 8.77478838e-01 0. 0. 0. 0. 0. 0. 0. 0. 0. 9.28091943e-01 9.21114564e-01 9.25483048e-01 0. 0. 0. 0. 8.39309931e-01 8.35636020e-01 8.34464669e-01 8.26179743e-01 8.06797564e-01 0. 8.54700983e-01 8.49232554e-01 8.54429901e-01 8.54798794e-01 8.49957526e-01 8.52020264e-01 8.50677907e-01 0. 0. 0. 9.99517083e-01 1.03328025e+00 1.03760946e+00 1.02808583e+00 1.00852633e+00 0. 0. 0. 0. 0. 0. 0. 0. 0. 0. 0. 0. 9.48381603e-01 9.35870111e-01 9.67907131e-01 9.49935555e-01 9.52139616e-01 9.57310259e-01 9.69918311e-01 9.76806164e-01 9.78239954e-01 9.72668111e-01 9.81082201e-01 9.85062718e-01 1.00088918e+00 9.98270869e-01 9.98169303e-01 9.08625245e-01 8.87922168e-01 8.01871359e-01 7.63567209e-01 7.51653552e-01 7.47957349e-01 7.46032774e-01 7.69813061e-01 7.34233558e-01 7.32087076e-01 7.26054907e-01 7.21676469e-01 7.20930874e-01 7.20093727e-01 7.16774225e-01 7.21292078e-01 7.18478322e-01 7.19738305e-01 7.21878111e-01 7.21235514e-01 7.06280231e-01 7.00383008e-01 6.95538104e-01 6.95469856e-01 6.91435814e-01 6.91584289e-01 0. 0. 0. 0. 0. 0. 7.92027175e-01 7.85024762e-01 0. 0. 0. 0. 0. 0. 0. 0. 0. 0. 7.08241880e-01 7.07925558e-01 7.12501347e-01 7.51045227e-01 7.85314381e-01 8.09770226e-01 8.04843962e-01 7.85828531e-01 7.89061546e-01 8.12559783e-01 8.29982698e-01 8.53294075e-01 8.47975850e-01 8.44049513e-01 8.49021614e-01 8.81497681e-01 8.82838130e-01 8.89037192e-01 9.10735130e-01 9.39822793e-01 9.55459118e-01 9.65269864e-01 9.59765971e-01 9.51523006e-01 9.31719184e-01 9.44026709e-01 9.22515750e-01 9.26185429e-01 9.30205584e-01 9.10512865e-01 9.30292368e-01 9.56666529e-01 9.85941589e-01 1.02163148e+00 1.01818120e+00 1.02453756e+00 1.01977491e+00 9.99254167e-01 9.95426476e-01 9.96550918e-01 1.08028710e+00 1.05145204e+00 1.01051915e+00 1.08507764e+00 1.01883864e+00 1.00965786e+00 1.00411534e+00 1.00488639e+00 1.00503063e+00 0. 0. 0. 0. 0. 0. 0. 1.02554393e+00 1.02458405e+00 1.02643824e+00 0. 0. 0. 0. 0. 0. 0. 0. 0. 0. 0. 0. 0. 0. 0. 1.06020558e+00 1.05901992e+00 1.11264622e+00 1.15581214e+00 1.12921238e+00 1.08452785e+00 1.06644702e+00 1.06264496e+00 1.12351274e+00 1.10641575e+00 1.14659345e+00 1.10621989e+00 1.12679327e+00 1.01486838e+00 0. 8.25537205e-01 8.53432894e-01 8.76980782e-01 0. 0. 0. 0. 0. 0. 0. 0. 0. 0. 0. 0. 0. 0. 0. 0. 0. 0. 0. 0. 0. 0. 0. 0. 0. 0. 0. 0. 0. 0. 0. 0. 0. 0. 0. 0. 0. 6.87648952e-01 7.01526642e-01 7.10635126e-01 7.01614320e-01 7.10495412e-01 7.72883356e-01 7.67063797e-01 7.59111166e-01 7.95147955e-01 8.35082948e-01 8.65674198e-01 8.70420754e-01 8.62167776e-01 8.63557220e-01 8.47941518e-01 8.35216224e-01 8.21322858e-01 8.44357491e-01 9.16877747e-01 8.81839156e-01 8.56875837e-01 8.51867557e-01 9.01713848e-01 9.98854756e-01 9.57992673e-01 9.52772260e-01 9.63617682e-01 9.87533569e-01 9.10184085e-01 8.59792948e-01 8.29317689e-01 8.70766997e-01 9.27002847e-01 8.75533581e-01 8.64084840e-01 8.56337786e-01 8.75497401e-01 8.48287582e-01 8.69955897e-01 8.56952190e-01 8.57810497e-01 8.58790398e-01 8.60806882e-01 8.64562631e-01 8.79109502e-01 9.42972422e-01 9.19533312e-01 8.90776217e-01 8.69969606e-01 9.02101457e-01 8.58752072e-01 8.51127565e-01 8.49999547e-01 8.37564766e-01 8.19015026e-01 8.30773950e-01 7.78195381e-01 8.89487565e-01 1.00679874e+00 1.01698470e+00 1.07912409e+00 1.06869340e+00 1.07810187e+00 0. 0. 0. 9.22626495e-01 9.29880917e-01 9.11076725e-01 8.52073073e-01 9.10806119e-01 0. 0. 0. 0. 0. 0. 0. 0. 0. 0. 0. 0. 0. 0. 0. 0. 0. 0. 0. 0. 0. 0. 0. 0. 0. 0. 0. 0. 0. 0. 0. 0. 0. 0. 0. 0. 0. 0. 0. 0. 0. 0. 0. 0. 0. 0. 0. 0. 0. 7.65297353e-01 7.67141104e-01 7.63423264e-01 7.64600277e-01 7.61076212e-01 0. 0. 0. 0. 0. 0. 0. 0. 0. 0. 0. 0. 0. 0. 0. 0. 0. 0. 0. 0. 0. 0. 0. 0. 0. 0. 0. 0. 0. 8.46893728e-01 8.34605575e-01 8.41288745e-01 8.43687356e-01 8.07645798e-01 8.17002892e-01 8.17652941e-01 1.02065098e+00 1.25283754e+00 1.28757203e+00 1.36441267e+00 1.55170155e+00 1.49214292e+00 0. 0. 0. 0. 0. 0. 0. 0. 0. 0. 6.85554683e-01 7.27871776e-01 6.82951331e-01 6.72915816e-01 7.06749618e-01 6.99205160e-01 7.08117247e-01 0. 0. 9.47717190e-01 9.47348058e-01 9.42511737e-01 9.38352764e-01 9.36777890e-01 9.31749701e-01 9.27195668e-01 9.17965591e-01 9.11108017e-01 0. 0. 0. 0. 0. 0. 0. 0. 0. 0. 0. 0. 0. 0. 0. 0. 0. 0. 0. 0. 0. 0.
    8.03552032e-01 8.07560861e-01 8.07971001e-01 8.05297673e-01 8.05017948e-01 7.98208892e-01 7.96585143e-01 8.24023902e-01 8.35311890e-01 8.25498521e-01 8.21089923e-01 8.24996173e-01 8.22824419e-01 8.17363262e-01 8.25764120e-01 7.68537879e-01 7.90759981e-01 8.12207878e-01 8.14981759e-01 8.34551871e-01 8.42408359e-01 8.54351819e-01 8.61398399e-01 8.51403534e-01 8.48815799e-01 8.55094612e-01 8.70185494e-01 8.71593833e-01 8.70289743e-01 8.74135673e-01 8.74719918e-01 8.74665558e-01 8.79633844e-01 8.78025413e-01 8.79606247e-01 8.83899927e-01 8.73542726e-01 0. 0. 0. 0. 0. 0. 0. 0. 0. 0. 0. 9.33995605e-01 9.27172303e-01 8.96830559e-01 8.83594930e-01 8.63708019e-01 0. 8.25360358e-01 8.13640058e-01 8.13943565e-01 8.11112463e-01 0. 0. 0. 8.60033453e-01 8.50696564e-01 8.64313722e-01 8.75292242e-01 0. 0. 0. 0. 1.08122313e+00 1.08361447e+00 1.07880986e+00 1.06060743e+00 1.03437984e+00 1.02622473e+00 1.03224647e+00 9.98833239e-01 9.90587831e-01 0. 0. 0. 0. 0. 9.42978978e-01 9.36570466e-01 9.36656773e-01 9.54686165e-01 9.45190072e-01 9.58962321e-01 9.42888975e-01 9.47154701e-01 9.44588900e-01 9.49621618e-01 9.51154709e-01 9.55446720e-01 9.63595629e-01 9.73865092e-01 9.68029201e-01 9.62820828e-01 9.61203218e-01 9.79492962e-01 8.86194408e-01 8.53059292e-01 8.29957366e-01 7.65393913e-01 7.54382968e-01 7.35231340e-01 7.31372237e-01 7.68525839e-01 7.02576816e-01 7.03794301e-01 7.16870964e-01 7.12284088e-01 7.08694398e-01 7.14347243e-01 7.15471089e-01 7.31799245e-01 7.22518921e-01 7.24225760e-01 6.94616258e-01 7.17039943e-01 7.13880479e-01 7.01982200e-01 7.07102537e-01 7.05465198e-01 7.06853032e-01 6.99728191e-01 0. 0. 0. 0. 0. 0. 0. 8.00563157e-01 8.07224631e-01 7.82157362e-01 8.01180840e-01 8.16563308e-01 0. 0. 0. 0. 0. 0. 7.17369974e-01 7.12103188e-01 7.18135118e-01 7.63790429e-01 7.60088980e-01 7.55955517e-01 7.68652380e-01 7.90351748e-01 7.85186827e-01 7.91058838e-01 8.18175852e-01 8.70137632e-01 8.78838658e-01 8.10786724e-01 8.03574145e-01 8.73447657e-01 9.14103270e-01 8.71550918e-01 8.28464627e-01 9.62009013e-01 9.32542622e-01 9.64938402e-01 9.33403850e-01 9.15659547e-01 8.93836498e-01 8.91570747e-01 8.85388315e-01 8.97723258e-01 9.54500139e-01 8.85611832e-01 9.43621576e-01 9.26922023e-01 9.50473368e-01 1.00818622e+00 9.83144999e-01 9.92064774e-01 1.01336288e+00 1.00449073e+00 1.06048596e+00 9.79474545e-01 1.00997400e+00 1.06518352e+00 1.04538274e+00 1.03794515e+00 1.07880294e+00 1.02344823e+00 1.00284410e+00 1.00342607e+00 9.98716712e-01 1.01144707e+00 0. 0. 0. 0. 0. 0. 0. 0. 0. 0. 0. 0. 1.00274754e+00 1.00959814e+00 1.03154504e+00 0. 0. 0. 0. 0. 0. 0. 0. 1.02206779e+00 1.00590014e+00 1.12398708e+00 1.06761897e+00 1.02865243e+00 1.02750909e+00 1.03503001e+00 9.95322883e-01 9.91757691e-01 9.96051252e-01 9.91455972e-01 9.95966911e-01 1.02282166e+00 9.45878744e-01 9.65725362e-01 9.39143360e-01 8.48641753e-01 8.35190833e-01 8.68255317e-01 8.81853282e-01 0. 0. 0. 0. 0. 0. 0. 0. 0. 0. 0. 0. 0. 0. 0. 0. 0. 0. 0. 0. 0. 0. 0. 0. 0. 0. 0. 0. 0. 0. 0. 0. 0. 0. 0. 0. 0. 0. 7.05374300e-01 6.91828966e-01 7.30578542e-01 7.23555684e-01 7.49631047e-01 7.85126805e-01 8.73065591e-01 8.68850291e-01 8.64512503e-01 8.58213544e-01 8.56306612e-01 8.50618124e-01 8.38219225e-01 8.30228746e-01 8.19749475e-01 8.37802768e-01 8.56395841e-01 8.86014044e-01 8.33845913e-01 8.32669973e-01 8.66491497e-01 9.83580172e-01 9.57404613e-01 8.73363018e-01 9.57591951e-01 9.45105374e-01 8.51134241e-01 8.19455981e-01 8.26152325e-01 9.06041443e-01 8.78970981e-01 8.15241754e-01 8.83778095e-01 8.37690532e-01 8.63830984e-01 8.59285176e-01 8.61170530e-01 8.57423961e-01 8.54185939e-01 8.47813725e-01 8.25299263e-01 8.43890667e-01 8.48700047e-01 8.34719777e-01 8.46988082e-01 8.51301610e-01 8.26723158e-01 8.16018343e-01 8.61928403e-01 8.55276883e-01 8.50139439e-01 8.47371101e-01 8.36044192e-01 8.07991564e-01 7.97738254e-01 9.01435196e-01 9.70886409e-01 1.02357423e+00 1.03632557e+00 1.05352497e+00 1.07086515e+00 1.06608045e+00 0. 9.14078295e-01 9.17752445e-01 8.64845634e-01 9.04734433e-01 9.69967186e-01 9.66462433e-01 8.44614029e-01 8.77524912e-01 0. 0. 0. 0. 0. 0. 0. 0. 0. 0. 0. 0. 0. 0. 0. 0. 0. 0. 0. 0. 0. 0. 0. 0. 0. 0. 0. 0. 0. 0. 0. 0. 0. 0. 0. 0. 0. 0. 0. 0. 0. 0. 0. 0. 0. 0. 0. 7.60520041e-01 7.55026698e-01 7.54152894e-01 7.62550831e-01 7.49272585e-01 0. 0. 0. 0. 0. 0. 0. 0. 0. 0. 0. 0. 0. 0. 0. 0. 0. 0. 0. 0. 0. 0. 0. 0. 0. 0. 0. 0. 0. 8.34408820e-01 8.44549000e-01 8.45555127e-01 8.44462395e-01 7.93397963e-01 8.27686846e-01 8.23233783e-01 9.05383885e-01 1.21763968e+00 1.24790454e+00 1.24860787e+00 1.56533635e+00 1.52188623e+00 1.47157371e+00 0. 0. 0. 0. 0. 0. 0. 0. 1.04729736e+00 9.76773024e-01 6.89097285e-01 6.92076802e-01 7.09233403e-01 7.04443455e-01 0. 7.81363547e-01 0. 0. 9.64311540e-01 9.57815468e-01 9.56391335e-01 9.53218281e-01 9.48834956e-01 9.39929247e-01 9.30332482e-01 9.20367658e-01 0. 0. 0. 0. 0. 0. 0. 0. 0. 0. 0. 0. 0. 0. 0. 0. 0. 0. 0. 0. 0. 0. 0.
    8.12438488e-01 8.29126596e-01 8.16640258e-01 8.15545738e-01 8.14477384e-01 8.14145863e-01 8.11943471e-01 7.87270427e-01 7.92506635e-01 8.28655958e-01 8.38325500e-01 8.30808461e-01 8.37517858e-01 8.17617118e-01 7.86725283e-01 8.06237042e-01 8.02556276e-01 8.05323839e-01 8.22597861e-01 8.31371546e-01 8.37691069e-01 9.22958791e-01 8.70140254e-01 8.82797182e-01 8.97812545e-01 8.82373631e-01 8.81398201e-01 8.78858984e-01 8.78892720e-01 8.79742622e-01 8.72859478e-01 8.75348568e-01 8.76107097e-01 8.75803411e-01 8.78288209e-01 8.81542146e-01 8.77774179e-01 0. 0. 0. 0. 0. 0. 0. 0. 0. 0. 0. 9.31762040e-01 9.32681143e-01 8.96726251e-01 8.71606469e-01 8.69748890e-01 8.67839098e-01 8.62825334e-01 8.55656505e-01 8.53773236e-01 8.39477003e-01 0. 0. 0. 8.90019119e-01 8.80617857e-01 8.83678973e-01 0. 0. 0. 0. 0. 1.08172500e+00 1.08276761e+00 1.05089045e+00 1.02187574e+00 1.03830743e+00 1.05332160e+00 1.05320704e+00 9.56976473e-01 9.84941185e-01 9.81721520e-01 1.01764178e+00 0. 0. 9.57433164e-01 9.07446682e-01 8.93715918e-01 9.04629648e-01 9.41831410e-01 9.23339725e-01 9.34125245e-01 9.35143530e-01 9.41465974e-01 9.44565535e-01 9.51171398e-01 9.42218602e-01 9.06399846e-01 9.37196910e-01 9.36584830e-01 8.73593032e-01 9.47284818e-01 9.45642352e-01 9.50703263e-01 8.97679567e-01 7.94052124e-01 7.81397820e-01 8.29375386e-01 7.61993051e-01 7.58371949e-01 7.51999438e-01 7.32998252e-01 7.29535580e-01 7.29706407e-01 7.08182395e-01 7.14422643e-01 7.13932216e-01 7.14937568e-01 7.22893238e-01 7.08673954e-01 7.53983378e-01 7.55248308e-01 7.53386199e-01 7.28188097e-01 7.30664372e-01 7.15702593e-01 7.12134957e-01 7.06462860e-01 7.06483603e-01 0. 0. 0. 0. 0. 0. 0. 7.95151114e-01 0. 7.74477363e-01 7.66385853e-01 7.54482210e-01 7.45209098e-01 0. 0. 0. 7.32673943e-01 7.38166630e-01 7.37745941e-01 0. 7.58415699e-01 7.68102288e-01 7.66553521e-01 7.64717579e-01 7.83988774e-01 7.97610164e-01 7.99597144e-01 8.04561079e-01 7.92385578e-01 8.12660992e-01 8.76675963e-01 9.62841690e-01 9.50678229e-01 8.98450553e-01 8.99767101e-01 8.90831828e-01 8.58286738e-01 8.39887202e-01 8.96519184e-01 9.12644029e-01 9.37401235e-01 9.16467428e-01 8.97938430e-01 8.63824129e-01 8.72441590e-01 8.38651061e-01 8.78329575e-01 8.87751281e-01 9.05995786e-01 9.12853897e-01 9.19413269e-01 9.21315789e-01 9.39044476e-01 9.41352963e-01 9.53785241e-01 9.61958587e-01 9.66325164e-01 9.62849855e-01 9.56344485e-01 9.57335472e-01 9.28496659e-01 1.04870903e+00 1.04194963e+00 1.03774571e+00 1.05825031e+00 1.02467537e+00 1.01731980e+00 1.02701747e+00 1.02526987e+00 9.96228814e-01 9.96225119e-01 9.84500170e-01 9.82066095e-01 9.87613022e-01 9.85445201e-01 9.85904872e-01 9.51700151e-01 9.87197936e-01 9.91049886e-01 9.90780532e-01 1.02233505e+00 1.01313996e+00 9.93340194e-01 1.08333933e+00 1.04020905e+00 1.03028476e+00 1.03304887e+00 1.01955116e+00 1.00526905e+00 9.74183023e-01 9.76363540e-01 1.02601874e+00 1.00572944e+00 1.03472114e+00 1.04274154e+00 1.06294858e+00 1.02405763e+00 1.01007640e+00 1.01184022e+00 9.69398022e-01 9.93059993e-01 9.93088663e-01 1.05688858e+00 1.01287162e+00 1.02948034e+00 9.95808244e-01 1.00945210e+00 8.67814124e-01 8.61760020e-01 8.43630373e-01 8.79010916e-01 8.94357264e-01 8.83319497e-01 0. 0. 0. 0. 0. 0. 0. 0. 0. 0. 0. 0. 0. 0. 0. 0. 0. 0. 0. 0. 0. 0. 0. 0. 0. 0. 0. 0. 0. 0. 0. 0. 0. 8.22921395e-01 0. 0. 0. 0. 7.22560227e-01 7.81013489e-01 7.49940813e-01 7.85900950e-01 7.59614050e-01 8.58271122e-01 8.57363641e-01 8.61246824e-01 8.58294010e-01 8.50129008e-01 8.47104967e-01 8.34958792e-01 8.24873805e-01 8.17240536e-01 8.28548372e-01 8.28248024e-01 8.22392941e-01 7.75493562e-01 8.04559469e-01 7.90139556e-01 8.63326967e-01 8.75994563e-01 9.23942387e-01 9.28295910e-01 9.17636395e-01 8.73986065e-01 8.70607257e-01 8.31661701e-01 8.26121032e-01 8.41226101e-01 8.24667037e-01 8.31688583e-01 8.39470088e-01 8.77562523e-01 8.10744882e-01 8.69866312e-01 8.62606883e-01 8.45167339e-01 8.79349649e-01 8.04406226e-01 8.33690584e-01 8.18874061e-01 8.23340356e-01 8.18120003e-01 8.26120436e-01 8.07049870e-01 7.97011733e-01 7.97388613e-01 8.07058573e-01 8.44532371e-01 8.49427998e-01 8.57925355e-01 8.58835042e-01 8.09066057e-01 1.02080262e+00 1.01334286e+00 1.01378202e+00 1.00453162e+00 0. 0. 0. 0. 0. 9.26998496e-01 8.92794013e-01 8.84432435e-01 8.81352007e-01 8.71736944e-01 8.55464399e-01 8.85876656e-01 0. 0. 0. 0. 0. 0. 0. 0. 0. 0. 0. 0. 0. 0. 0. 0. 0. 0. 0. 0. 0. 0. 0. 0. 0. 0. 0. 0. 0. 0. 0. 0. 0. 0. 0. 0. 0. 0. 0. 0. 0. 0. 0. 0. 0. 0. 0. 0. 0. 7.58985817e-01 0. 0. 0. 0. 0. 0. 0. 0. 0. 0. 0. 0. 0. 0. 0. 0. 0. 0. 0. 0. 0. 0. 0. 0. 0. 0. 0. 9.79322493e-01 0. 0. 0. 8.46832216e-01 8.43848348e-01 8.34462285e-01 8.99527431e-01 8.62032771e-01 8.78229797e-01 1.04541397e+00 1.02714837e+00 1.22205508e+00 1.21155632e+00 1.20450282e+00 1.23233914e+00 1.31499124e+00 1.50719273e+00 0. 0. 0. 0. 0. 0. 0. 0. 1.03007972e+00 1.01436305e+00 9.93277609e-01 8.65516126e-01 0. 0. 0. 0. 0. 0. 9.47332859e-01 9.53560174e-01 9.48324442e-01 9.49948728e-01 9.48632360e-01 9.44691479e-01 9.44106579e-01 9.39934492e-01 0. 0. 0. 0. 0. 0. 0. 0. 0. 0. 0. 0. 0. 0. 0. 0. 0. 0. 0. 0. 0. 0. 0.
    8.54740322e-01 8.12161803e-01 8.27656388e-01 8.21402788e-01 8.13819826e-01 8.15040886e-01 8.16314995e-01 8.26505363e-01 8.30362022e-01 8.54835689e-01 8.77572060e-01 8.53930175e-01 8.42588842e-01 8.28500152e-01 8.04949999e-01 8.21203053e-01 8.25102806e-01 8.26526284e-01 8.32503617e-01 8.32998097e-01 8.35506916e-01 8.30432355e-01 8.60734284e-01 8.74642134e-01 8.91806841e-01 8.81118476e-01 8.68387103e-01 8.67682993e-01 8.75351787e-01 8.74385536e-01 8.76012504e-01 8.79037082e-01 8.79736423e-01 8.80170465e-01 8.82709324e-01 8.82248521e-01 8.82813454e-01 0. 0. 0. 0. 0. 0. 0. 0. 0. 0. 0. 9.29433644e-01 9.01143730e-01 8.82534325e-01 8.74540925e-01 8.67091000e-01 8.70941222e-01 8.77515614e-01 8.74805808e-01 0. 0. 8.64717960e-01 8.73819351e-01 9.03730571e-01 8.94100487e-01 9.04447615e-01 9.08776224e-01 0. 0. 0. 0. 0. 0. 0. 0. 1.06346405e+00 1.03778386e+00 1.04913759e+00 1.01188791e+00 9.78642821e-01 9.84818935e-01 9.47346687e-01 1.00146711e+00 9.53128934e-01 8.73469651e-01 9.40760076e-01 8.73941898e-01 8.65051687e-01 8.91457200e-01 9.13871646e-01 8.68910134e-01 9.11721468e-01 9.26176965e-01 9.29703116e-01 9.37061071e-01 9.35222864e-01 9.45949376e-01 9.29258704e-01 9.10540760e-01 9.13137972e-01 9.10801232e-01 9.17425156e-01 9.22741532e-01 9.21088099e-01 9.26620781e-01 8.42051148e-01 7.65749276e-01 8.43475103e-01 8.21385801e-01 7.68473029e-01 7.68305182e-01 7.67776251e-01 7.56456733e-01 7.38815129e-01 7.10656106e-01 0. 7.12357044e-01 7.15564489e-01 7.18995988e-01 7.31733084e-01 7.22086489e-01 7.31025875e-01 7.33137071e-01 7.28250682e-01 7.24808991e-01 7.34321356e-01 7.17867196e-01 7.08828926e-01 7.09750354e-01 0. 0. 0. 0. 0. 0. 0. 0. 0. 0. 7.97917366e-01 6.93924785e-01 6.97543919e-01 0. 0. 0. 7.08443284e-01 7.12172151e-01 7.14964569e-01 7.27938354e-01 7.13806093e-01 7.72530854e-01 7.80032337e-01 7.72439122e-01 7.81391442e-01 8.01886082e-01 8.01926732e-01 7.99361348e-01 7.87582278e-01 7.96247780e-01 8.39021146e-01 9.36986744e-01 9.39216435e-01 9.36449826e-01 9.48923707e-01 8.82491529e-01 9.27638173e-01 9.19690251e-01 9.07986224e-01 9.10322189e-01 9.10107970e-01 9.05961871e-01 8.91484320e-01 8.77035916e-01 8.73648643e-01 9.03616667e-01 8.40822101e-01 8.93424630e-01 8.98173273e-01 9.19797242e-01 9.17033613e-01 9.20624197e-01 9.28558409e-01 9.35014844e-01 9.32117343e-01 9.18884933e-01 9.29175436e-01 9.08789814e-01 9.15117145e-01 9.13857341e-01 9.13718641e-01 9.14733350e-01 9.66340899e-01 1.01993239e+00 1.03187501e+00 9.89092946e-01 1.01866186e+00 1.01008797e+00 1.00521469e+00 9.97373700e-01 9.67664361e-01 9.70427811e-01 9.87413645e-01 9.84208524e-01 9.99034405e-01 9.86585617e-01 9.78001714e-01 1.00180519e+00 9.76779401e-01 9.92140770e-01 9.38395143e-01 1.00018823e+00 9.80593324e-01 1.01544774e+00 1.03498900e+00 1.03873074e+00 1.06856287e+00 1.01436961e+00 1.00107110e+00 9.76092696e-01 9.68168855e-01 9.09473777e-01 9.77678657e-01 1.01511872e+00 1.07526171e+00 9.43366051e-01 1.00542331e+00 9.98603284e-01 9.90885317e-01 9.82571065e-01 9.88892853e-01 9.63413298e-01 9.86595154e-01 9.56384242e-01 1.00859880e+00 9.99060690e-01 9.66363013e-01 9.57737803e-01 9.39282596e-01 9.10042822e-01 9.06361997e-01 8.91084313e-01 9.01672781e-01 9.05649960e-01 8.90039682e-01 0. 0. 0. 0. 0. 0. 0. 0. 0. 0. 0. 0. 0. 0. 0. 0. 0. 0. 0. 0. 0. 0. 0. 0. 0. 0. 0. 0. 0. 0. 1.05178595e+00 0. 1.03911340e+00 0. 0. 0. 7.25222826e-01 7.28805423e-01 7.37559617e-01 7.20249295e-01 7.69008040e-01 8.40145111e-01 8.41185570e-01 8.39513361e-01 8.39223623e-01 8.40422034e-01 8.36594045e-01 8.33234191e-01 8.36120188e-01 8.27671826e-01 8.15758526e-01 8.03028524e-01 8.01402986e-01 7.89916992e-01 7.90880442e-01 7.84140229e-01 7.88110554e-01 9.72433627e-01 9.31763887e-01 9.14244533e-01 8.85545909e-01 8.79816175e-01 8.44157040e-01 8.12035382e-01 8.83331716e-01 8.38077366e-01 8.25698495e-01 8.28430474e-01 8.30094337e-01 8.28396678e-01 8.25692177e-01 8.10707510e-01 8.30597281e-01 8.25378060e-01 8.23010504e-01 8.23355198e-01 8.19589198e-01 8.27806950e-01 8.24913144e-01 8.16146612e-01 8.16710174e-01 8.07381690e-01 7.94605792e-01 8.04880142e-01 7.98239827e-01 8.01063836e-01 8.02790761e-01 8.56008351e-01 8.49251807e-01 9.02247071e-01 1.00755000e+00 1.01321220e+00 1.01340818e+00 1.01297867e+00 0. 0. 0. 0. 8.90369654e-01 9.07118201e-01 9.14271653e-01 9.05096769e-01 8.93427014e-01 8.91449630e-01 8.83752048e-01 8.92488837e-01 9.06710684e-01 0. 0. 0. 0. 0. 0. 0. 0. 0. 0. 0. 0. 0. 0. 0. 0. 0. 0. 0. 0. 0. 0. 0. 0. 0. 0. 0. 0. 0. 0. 0. 0. 0. 0. 0. 0. 0. 0. 0. 0. 0. 0. 0. 0. 0. 0. 0. 0. 0. 0. 0. 0. 0. 0. 0. 0. 0. 0. 0. 0. 0. 0. 0. 0. 0. 0. 0. 0. 0. 0. 0. 0. 0. 0. 0. 0. 9.58952785e-01 0. 9.56155896e-01 8.76998961e-01 8.41515958e-01 8.52157533e-01 8.49269688e-01 8.61568034e-01 8.84870172e-01 8.85316432e-01 1.02361381e+00 1.28699470e+00 1.22697461e+00 1.18427980e+00 1.01065290e+00 1.00387716e+00 1.11332893e+00 0. 0. 0. 0. 0. 0. 0. 0. 0. 1.03439534e+00 9.89038587e-01 9.99938726e-01 9.45436120e-01 0. 9.45054948e-01 9.28072512e-01 9.26267087e-01 0. 0. 0. 9.40696895e-01 9.34801877e-01 9.38873053e-01 9.35781062e-01 9.41585720e-01 9.38712180e-01 9.42072868e-01 0. 0. 0. 0. 0. 0. 0. 0. 0. 0. 0. 0. 0. 0. 0. 0. 0. 0. 0. 0. 0. 0. 0.
    8.42581451e-01 8.25312793e-01 8.71933162e-01 8.66776288e-01 8.49723041e-01 8.21815550e-01 8.19609642e-01 8.23434353e-01 8.58267069e-01 8.91075492e-01 8.76122713e-01 8.64182293e-01 8.41543376e-01 8.52891564e-01 8.07186007e-01 8.46620142e-01 8.70274067e-01 8.53346884e-01 8.39845002e-01 8.31723690e-01 8.41437876e-01 8.70406806e-01 8.58395934e-01 0. 8.72028232e-01 8.60558927e-01 8.64466727e-01 8.73417854e-01 8.72857451e-01 8.74959052e-01 8.76464188e-01 8.79234731e-01 8.82569432e-01 8.82430375e-01 8.84045959e-01 8.84770691e-01 0. 0. 0. 0. 0. 0. 0. 0. 0. 0. 0. 0. 9.03881729e-01 8.98339391e-01 8.74823272e-01 8.47138941e-01 8.67235422e-01 8.72879148e-01 8.65607381e-01 8.61169755e-01 8.53658795e-01 8.53340626e-01 8.53017747e-01 8.80999327e-01 8.99133980e-01 9.09644127e-01 9.05353606e-01 9.75947917e-01 9.39488053e-01 0. 9.47355986e-01 9.91148233e-01 1.00949395e+00 9.82832253e-01 1.00154674e+00 1.01201832e+00 1.02235353e+00 9.88510609e-01 1.00186098e+00 1.00535440e+00 9.77390885e-01 1.02479672e+00 1.01155055e+00 9.17732954e-01 9.60902631e-01 8.42840672e-01 8.83592486e-01 8.57186317e-01 8.63569796e-01 8.70354235e-01 8.64240527e-01 8.93971145e-01 9.12957132e-01 9.17956233e-01 8.93878758e-01 9.38813031e-01 9.12653387e-01 9.20866668e-01 9.07915711e-01 8.98637652e-01 9.14492309e-01 9.15483952e-01 9.15508926e-01 9.02842045e-01 9.35948074e-01 8.62160623e-01 8.44666421e-01 8.11585963e-01 8.36457014e-01 7.61952162e-01 7.65358388e-01 7.72995055e-01 7.81376064e-01 7.82180130e-01 7.60199249e-01 0. 7.18281090e-01 7.18370080e-01 7.13242471e-01 7.12514818e-01 7.14456081e-01 7.17214227e-01 7.25795865e-01 7.27793813e-01 0. 7.23860800e-01 7.13823199e-01 7.07230151e-01 0. 0. 0. 0. 0. 0. 0. 0. 0. 0. 0. 0. 0. 6.89482689e-01 6.69288516e-01 6.79062843e-01 0. 0. 7.22170115e-01 7.07158923e-01 7.09102154e-01 7.18454421e-01 7.25223303e-01 7.81106830e-01 7.73499787e-01 7.79222012e-01 7.80235410e-01 7.91755676e-01 7.91962504e-01 7.90590644e-01 7.78446734e-01 7.75216460e-01 7.72511601e-01 8.32261980e-01 8.65088284e-01 9.26078320e-01 9.38762307e-01 9.21091855e-01 8.52721810e-01 8.50933790e-01 9.04237032e-01 8.86058092e-01 8.97926807e-01 9.05449092e-01 8.87248218e-01 8.78586531e-01 8.73408377e-01 8.73009622e-01 8.76128495e-01 8.78178775e-01 8.88226867e-01 8.97312164e-01 9.05640960e-01 9.21075940e-01 9.23139989e-01 9.15463090e-01 9.24358606e-01 9.19139981e-01 9.15918767e-01 9.21569943e-01 9.06780660e-01 9.04215038e-01 9.05095100e-01 9.04436886e-01 8.95895958e-01 9.35965657e-01 1.00240958e+00 1.00867629e+00 1.01641333e+00 1.04050732e+00 1.16924548e+00 9.43823278e-01 8.72757494e-01 9.78396833e-01 1.02827239e+00 9.74770188e-01 8.97690952e-01 1.00116301e+00 9.93296921e-01 9.83840644e-01 9.77702796e-01 9.68632996e-01 9.62116838e-01 9.34021413e-01 9.79655385e-01 1.00400758e+00 1.02627599e+00 1.02887034e+00 1.03042924e+00 9.36260462e-01 1.00093675e+00 9.30642426e-01 1.05927908e+00 9.25328672e-01 9.60783362e-01 9.77949679e-01 1.00473392e+00 1.00234354e+00 9.86635864e-01 9.89411771e-01 9.66502964e-01 9.64827418e-01 9.82192755e-01 9.74463403e-01 9.81866419e-01 9.85700369e-01 9.90426779e-01 9.92820680e-01 9.66496408e-01 9.41865027e-01 9.30003464e-01 9.27592337e-01 9.26947892e-01 8.97730649e-01 8.99182856e-01 9.10845876e-01 9.33042467e-01 9.04922128e-01 0. 0. 0. 0. 0. 0. 0. 0. 0. 0. 0. 0. 0. 8.98979604e-01 8.97020876e-01 8.99843931e-01 0. 0. 0. 0. 0. 0. 0. 0. 0. 0. 0. 0. 1.05370307e+00 1.07349122e+00 1.08437157e+00 8.30561161e-01 7.45033622e-01 0. 7.22287178e-01 7.19410360e-01 7.25740552e-01 7.40023553e-01 7.85422385e-01 7.76328266e-01 8.21115136e-01 8.24686646e-01 8.31280291e-01 8.31233621e-01 8.41263294e-01 8.40205193e-01 8.38209152e-01 8.53838563e-01 8.29309285e-01 8.03735137e-01 8.06300461e-01 8.00281227e-01 8.03910375e-01 8.00742865e-01 8.28806221e-01 8.73483241e-01 9.39351678e-01 9.19051230e-01 9.00340378e-01 8.80657434e-01 8.56561303e-01 8.13336432e-01 8.04147959e-01 7.80328155e-01 7.99885929e-01 7.94926941e-01 8.20686221e-01 8.06866586e-01 8.00351918e-01 8.04389238e-01 8.07242870e-01 8.16087306e-01 8.23423922e-01 8.27646434e-01 8.54791462e-01 8.36915135e-01 8.36454093e-01 8.40148747e-01 8.28511357e-01 0. 8.01374793e-01 7.93072879e-01 7.98453212e-01 8.00806344e-01 7.99111784e-01 8.03889751e-01 8.15615892e-01 0. 0. 1.03990483e+00 1.03757691e+00 1.02743435e+00 1.00877845e+00 0. 0. 0. 0. 0. 0. 9.08697963e-01 9.16166961e-01 9.16138768e-01 9.07939076e-01 9.07787383e-01 9.12644565e-01 9.14025128e-01 0. 0. 0. 0. 0. 0. 0. 0. 0. 0. 0. 0. 0. 0. 0. 0. 0. 0. 0. 0. 0. 0. 0. 0. 0. 0. 0. 0. 0. 0. 0. 0. 0. 0. 0. 0. 0. 0. 0. 0. 0. 0. 7.78530896e-01 7.74457335e-01 7.74560869e-01 0. 0. 0. 7.59961188e-01 0. 7.55349994e-01 0. 0. 0. 0. 0. 0. 0. 0. 0. 0. 0. 0. 0. 0. 0. 0. 0. 0. 0. 0. 0. 0. 0. 0. 9.70950544e-01 9.74043548e-01 0. 9.87752438e-01 9.16144550e-01 8.71634364e-01 8.71328950e-01 8.59059513e-01 8.67426932e-01 8.81098270e-01 9.14135456e-01 8.96767378e-01 0. 1.01682508e+00 1.00188649e+00 1.00424349e+00 1.00191998e+00 9.70060408e-01 0. 0. 0. 0. 0. 0. 0. 0. 1.01989233e+00 9.98269916e-01 9.63702023e-01 9.47399080e-01 9.53651428e-01 9.57819045e-01 9.40406680e-01 9.36786056e-01 9.33550835e-01 0. 0. 0. 9.23262417e-01 9.38096464e-01 9.28134620e-01 9.31683004e-01 9.32261646e-01 9.29230213e-01 9.37166035e-01 0. 0. 0. 0. 0. 0. 0. 0. 0. 0. 0. 0. 0. 0. 0. 0. 0. 0. 0. 0. 0. 0. 0.
    8.91138375e-01 8.90005887e-01 9.66712594e-01 9.22499895e-01 8.96184444e-01 8.21283937e-01 8.18101466e-01 8.70149016e-01 8.90053272e-01 8.94084156e-01 9.33380604e-01 9.13241982e-01 8.69766355e-01 8.69087398e-01 8.83230507e-01 8.84816229e-01 8.57318342e-01 8.46618295e-01 8.38521898e-01 8.37646306e-01 8.36601377e-01 8.37109149e-01 8.64648521e-01 8.28905165e-01 8.59984934e-01 0. 8.65996182e-01 8.64400446e-01 8.69538009e-01 8.64162445e-01 8.72565746e-01 8.81740272e-01 8.84243369e-01 8.83755326e-01 8.80946696e-01 8.78720045e-01 0. 0. 0. 0. 0. 0. 0. 0. 0. 0. 0. 0. 8.92105222e-01 9.06817734e-01 8.42401147e-01 8.53606105e-01 8.53752971e-01 8.45162928e-01 8.75627279e-01 8.46760511e-01 8.42843771e-01 8.51356864e-01 8.42680395e-01 8.51652682e-01 8.26710463e-01 8.88858736e-01 8.85234416e-01 9.63128686e-01 9.35118616e-01 9.13684905e-01 9.41229045e-01 9.46166694e-01 9.49243248e-01 9.66434419e-01 9.67801809e-01 9.69698191e-01 9.76634204e-01 9.75383222e-01 9.72073793e-01 9.87172484e-01 9.85961556e-01 1.00470626e+00 9.27668989e-01 9.57797408e-01 9.26443815e-01 9.24667776e-01 8.55217636e-01 8.79580379e-01 8.60391557e-01 8.77322793e-01 8.79521132e-01 9.00082111e-01 8.77685785e-01 9.31258917e-01 9.33243334e-01 9.32301998e-01 9.22751546e-01 9.15769577e-01 9.14139330e-01 8.95217299e-01 8.31157207e-01 8.35375369e-01 8.56256604e-01 8.59076142e-01 8.98867011e-01 9.03431892e-01 8.51236403e-01 8.29311609e-01 7.71560133e-01 7.76429057e-01 7.76362002e-01 7.78811574e-01 8.42987239e-01 7.80940056e-01 7.86713481e-01 7.44216263e-01 7.29784012e-01 7.19482780e-01 7.20534086e-01 7.13476121e-01 7.12267876e-01 7.12646067e-01 7.24536419e-01 7.27635324e-01 0. 7.23196924e-01 7.27399111e-01 7.18412995e-01 0. 0. 0. 0. 0. 0. 0. 0. 0. 0. 0. 0. 0. 6.86174572e-01 6.73729837e-01 6.84975207e-01 0. 0. 7.12867379e-01 7.07721531e-01 7.14065254e-01 7.56002843e-01 7.74496436e-01 7.78698027e-01 7.73071587e-01 7.76186526e-01 7.67671466e-01 7.85196185e-01 7.90716231e-01 7.98730254e-01 7.96052516e-01 7.90258110e-01 7.79737234e-01 7.71825492e-01 7.90487707e-01 7.94199765e-01 8.53529036e-01 7.91611254e-01 9.10163760e-01 8.95417809e-01 8.86612713e-01 8.81808758e-01 8.82572114e-01 8.75336766e-01 8.76254261e-01 8.67686272e-01 8.56876731e-01 8.64898682e-01 8.61783803e-01 8.68164480e-01 8.79036665e-01 9.14849401e-01 8.99354517e-01 9.11633015e-01 9.18118477e-01 9.10122573e-01 9.38561022e-01 9.05273855e-01 9.39670563e-01 9.00339961e-01 8.80515516e-01 8.76912773e-01 8.77174675e-01 8.76094997e-01 8.83239150e-01 8.71197402e-01 8.67270887e-01 8.96133184e-01 8.48244309e-01 8.36182654e-01 8.21854353e-01 8.64416063e-01 8.74890268e-01 9.43162382e-01 9.61238027e-01 9.88557816e-01 9.60502565e-01 9.58326578e-01 9.64325309e-01 9.65182900e-01 9.56028283e-01 9.20378625e-01 9.39475238e-01 9.59641695e-01 9.45038080e-01 9.66462314e-01 1.00470424e+00 1.02262211e+00 1.05859876e+00 1.07312608e+00 1.03668463e+00 9.93269026e-01 1.01531923e+00 9.45252597e-01 8.72649252e-01 9.57116783e-01 9.99083281e-01 1.06921387e+00 1.02490437e+00 9.51460421e-01 9.39117074e-01 9.39326584e-01 9.61608708e-01 9.79023159e-01 9.75654960e-01 9.75570500e-01 9.64970469e-01 9.85588849e-01 9.35083210e-01 9.39831495e-01 9.53581274e-01 9.36185718e-01 1.00968099e+00 9.42679703e-01 9.65382338e-01 8.94813895e-01 9.50382471e-01 9.56180096e-01 0. 0. 0. 0. 0. 0. 0. 0. 0. 0. 0. 8.93567681e-01 8.90424013e-01 8.98706377e-01 9.06117439e-01 8.94238114e-01 0. 0. 0. 0. 0. 0. 0. 0. 0. 0. 0. 0. 1.07374465e+00 1.07260752e+00 1.05252647e+00 7.48492181e-01 7.39932716e-01 0. 7.31888533e-01 7.36595213e-01 7.28556216e-01 7.44485915e-01 7.53314197e-01 8.56254578e-01 8.67505133e-01 8.63969743e-01 8.58448982e-01 8.76530945e-01 8.39538336e-01 8.43206942e-01 8.27598691e-01 8.29336107e-01 8.39525461e-01 8.24892640e-01 8.15181255e-01 8.04922402e-01 8.08524549e-01 8.05208802e-01 8.29948545e-01 1.01794577e+00 9.47914779e-01 9.23121572e-01 8.85631084e-01 8.56520116e-01 8.44436586e-01 8.49144936e-01 8.38283658e-01 8.71406436e-01 7.94948995e-01 8.62695634e-01 8.29553187e-01 8.26071620e-01 8.24196696e-01 8.15877080e-01 8.15535188e-01 8.17128599e-01 8.21587443e-01 8.23776007e-01 8.38839471e-01 8.64536941e-01 8.71619284e-01 8.54720414e-01 0. 8.28574955e-01 7.90205896e-01 8.12740088e-01 8.11868608e-01 8.16109955e-01 8.17289412e-01 8.21269751e-01 7.95618594e-01 0. 0. 1.00077045e+00 9.99503851e-01 9.97089088e-01 0. 0. 0. 0. 0. 0. 0. 9.19783413e-01 9.29998100e-01 9.13610578e-01 9.06543791e-01 8.94310057e-01 0. 0. 0. 0. 0. 0. 0. 0. 0. 0. 0. 0. 0. 0. 0. 0. 0. 0. 0. 0. 0. 0. 0. 0. 0. 0. 0. 0. 0. 0. 0. 0. 0. 0. 0. 0. 0. 0. 0. 0. 0. 0. 0. 7.94627964e-01 7.89902925e-01 7.80114174e-01 7.85705626e-01 7.80470371e-01 7.73650467e-01 7.71076620e-01 7.69454896e-01 7.65381455e-01 7.56792188e-01 0. 0. 0. 0. 0. 0. 0. 0. 0. 0. 0. 0. 0. 0. 0. 0. 0. 0. 0. 0. 0. 0. 0. 0. 9.72988963e-01 9.96066511e-01 1.01185083e+00 0. 9.76312518e-01 9.02979851e-01 8.67979527e-01 8.71201754e-01 8.58024895e-01 8.57775331e-01 8.80014300e-01 9.13049817e-01 0. 9.37716782e-01 9.37226593e-01 9.36726511e-01 9.25200522e-01 9.25618649e-01 9.17178690e-01 0. 0. 0. 0. 0. 0. 0. 1.00436831e+00 9.89748538e-01 9.69104111e-01 9.50209081e-01 9.72111166e-01 9.86712098e-01 9.91924107e-01 9.85456645e-01 9.64366317e-01 0. 9.67779279e-01 9.45213139e-01 9.56906497e-01 9.52510417e-01 9.50371087e-01 9.50967848e-01 9.46838319e-01 9.42978442e-01 9.40845013e-01 9.39562261e-01 0. 0. 0. 0. 0. 0. 0. 0. 0. 0. 0. 0. 0. 0. 0. 0. 0. 0. 0. 0. 0. 0.
    9.78541672e-01 9.60100710e-01 9.86223519e-01 9.93992746e-01 9.37903941e-01 1.03649306e+00 1.03905737e+00 9.30333197e-01 0. 0. 9.56780672e-01 1.04127634e+00 8.91370535e-01 1.03111088e+00 8.75724673e-01 8.77705336e-01 8.80044401e-01 8.73201370e-01 8.79945755e-01 8.36975098e-01 8.54540527e-01 8.52727890e-01 8.68682921e-01 8.65438700e-01 8.66138875e-01 0. 8.65683556e-01 8.58993351e-01 8.60312939e-01 8.66746187e-01 8.69577587e-01 8.72740507e-01 8.83341372e-01 8.73888433e-01 8.74157012e-01 8.80068421e-01 0. 0. 0. 0. 0. 0. 0. 0. 0. 0. 0. 0. 0. 8.62967014e-01 8.39632511e-01 8.35483372e-01 8.40259254e-01 8.37775528e-01 8.27119589e-01 8.30682755e-01 8.29705477e-01 8.34531009e-01 8.34104657e-01 8.29328239e-01 8.24355066e-01 8.32369208e-01 8.31659853e-01 9.71705675e-01 9.35156167e-01 9.21004772e-01 8.77854943e-01 9.10481930e-01 9.12476957e-01 9.51766491e-01 9.29141819e-01 9.27135170e-01 9.05789018e-01 9.04112697e-01 9.37440038e-01 9.31677580e-01 9.66220319e-01 9.31630194e-01 9.20617402e-01 9.32904482e-01 9.09599841e-01 8.89974177e-01 8.82585585e-01 8.69431317e-01 8.69726777e-01 8.85951698e-01 8.86022329e-01 8.90675843e-01 9.13035750e-01 9.83651340e-01 9.46446836e-01 8.55502546e-01 9.23597455e-01 8.46938372e-01 8.28766763e-01 8.15338135e-01 9.02469635e-01 8.33372772e-01 7.94734657e-01 7.83505440e-01 8.39782357e-01 8.04282606e-01 8.17823529e-01 7.67123282e-01 7.77529657e-01 7.79235780e-01 7.88544357e-01 7.85476506e-01 7.91276753e-01 7.82779634e-01 7.58572340e-01 7.45378673e-01 7.26730049e-01 7.25708187e-01 7.28438735e-01 7.23122776e-01 7.22458422e-01 7.25922406e-01 7.34656274e-01 0. 0. 7.22647250e-01 0. 7.21514344e-01 0. 0. 0. 0. 0. 0. 0. 0. 0. 0. 0. 0. 0. 6.65143490e-01 6.67562604e-01 6.52970374e-01 6.63356423e-01 0. 0. 7.23273695e-01 7.42224157e-01 7.43356586e-01 7.77740419e-01 7.78273880e-01 7.78695643e-01 7.72860050e-01 7.04183400e-01 7.88388550e-01 8.07157278e-01 8.28666568e-01 8.14801812e-01 8.01959336e-01 7.83141851e-01 8.16894352e-01 8.12514305e-01 8.31098616e-01 8.46107185e-01 9.45975304e-01 9.28343952e-01 7.91615367e-01 9.22916949e-01 8.80845249e-01 8.63114297e-01 8.66450667e-01 8.57831419e-01 8.78688931e-01 8.96145105e-01 8.56972218e-01 8.88645172e-01 8.20398152e-01 8.56649637e-01 8.82695556e-01 9.13505554e-01 9.06781077e-01 9.32888091e-01 9.38760579e-01 9.21002328e-01 9.02488887e-01 8.91405106e-01 8.72024059e-01 8.77040565e-01 9.13130522e-01 9.08849597e-01 8.64152133e-01 8.35778594e-01 8.37129295e-01 8.31472695e-01 8.24387550e-01 8.44956756e-01 8.45077932e-01 8.59260321e-01 7.90491819e-01 8.06847811e-01 8.73380303e-01 9.10023928e-01 9.53245819e-01 1.01396155e+00 8.88240755e-01 9.84594226e-01 9.71972287e-01 9.42383289e-01 9.58636582e-01 9.21757996e-01 9.06877637e-01 8.97672832e-01 9.11350906e-01 9.99275744e-01 9.89839196e-01 1.01479602e+00 1.14276922e+00 9.74356890e-01 9.84994352e-01 1.05965090e+00 9.67458725e-01 9.80301321e-01 9.67258811e-01 9.97479022e-01 1.04469395e+00 9.48586643e-01 9.63684082e-01 8.83845508e-01 9.67524409e-01 9.42622602e-01 9.72850621e-01 9.74325359e-01 9.64686513e-01 9.80091512e-01 9.13611710e-01 8.70580316e-01 9.26788449e-01 1.00062215e+00 9.64375198e-01 9.30001795e-01 9.52513874e-01 9.70123351e-01 9.43061769e-01 9.55007017e-01 9.38235819e-01 9.63048398e-01 0. 0. 0. 0. 0. 0. 0. 0. 0. 0. 9.04171526e-01 9.01288569e-01 9.05268788e-01 9.06491578e-01 9.12105501e-01 0. 0. 0. 0. 0. 0. 0. 0. 0. 0. 0. 0. 1.05889285e+00 1.04816222e+00 7.51692176e-01 7.41559982e-01 7.25090921e-01 7.17098475e-01 7.17278361e-01 7.20070183e-01 7.21863031e-01 7.22629011e-01 7.35714138e-01 7.38340557e-01 8.11991513e-01 8.50276291e-01 8.45871270e-01 8.42355490e-01 8.33173871e-01 8.19483280e-01 8.07835221e-01 8.15022469e-01 8.14295232e-01 8.28198910e-01 8.05373430e-01 8.36556077e-01 8.11377406e-01 8.83568227e-01 8.74083042e-01 9.16157067e-01 9.36377048e-01 9.20097828e-01 8.81418109e-01 8.42620254e-01 8.66910040e-01 8.78776491e-01 8.59394848e-01 8.47623765e-01 8.30947936e-01 7.83881843e-01 8.32067132e-01 8.26988041e-01 8.22037637e-01 7.91545033e-01 8.09849381e-01 8.12242329e-01 8.09559524e-01 8.18272948e-01 8.03199232e-01 7.94399679e-01 8.33174407e-01 8.36117089e-01 8.26643288e-01 8.22368622e-01 8.27482104e-01 8.19064736e-01 8.22005928e-01 8.20148945e-01 8.25599849e-01 8.23011100e-01 8.17654788e-01 0. 0. 9.94924307e-01 9.91513073e-01 9.81913388e-01 9.74363506e-01 9.78576601e-01 0. 0. 0. 0. 0. 9.16191399e-01 9.05682683e-01 9.05449092e-01 0. 0. 0. 0. 0. 0. 0. 0. 0. 0. 0. 0. 0. 0. 0. 0. 0. 0. 0. 0. 0. 0. 0. 0. 0. 0. 0. 0. 0. 0. 0. 0. 0. 0. 0. 0. 0. 0. 0. 0. 0. 0. 0. 0. 0. 7.91511118e-01 7.99257815e-01 7.96294928e-01 7.94943571e-01 7.86625326e-01 7.79338419e-01 7.69265532e-01 7.66683757e-01 7.66778767e-01 7.55405068e-01 0. 0. 0. 0. 0. 0. 0. 0. 0. 0. 0. 0. 0. 0. 0. 0. 0. 0. 0. 0. 0. 0. 0. 0. 9.62560534e-01 9.50160325e-01 0. 1.04326570e+00 1.04879403e+00 9.46124017e-01 8.67291868e-01 8.65790784e-01 8.72148156e-01 8.72544885e-01 8.66723716e-01 0. 0. 8.60453546e-01 8.55551481e-01 8.57055306e-01 8.63963187e-01 8.82632375e-01 8.96157265e-01 9.01316345e-01 8.95506024e-01 0. 0. 0. 0. 0. 1.01796675e+00 9.81704593e-01 9.50675428e-01 9.69538391e-01 9.82371986e-01 9.89040434e-01 9.80769634e-01 1.00310588e+00 9.71358597e-01 9.53875780e-01 9.44457471e-01 9.29482996e-01 9.38086748e-01 9.44732308e-01 9.47624803e-01 9.40948427e-01 9.39862967e-01 9.37869012e-01 9.35947895e-01 9.31929946e-01 9.24394846e-01 0. 0. 0. 0. 0. 0. 0. 0. 0. 0. 0. 0. 0. 0. 0. 0. 0. 0. 0. 0. 0.
    9.42295969e-01 9.49799895e-01 9.36335266e-01 9.51693058e-01 9.56966102e-01 9.28458631e-01 9.58064973e-01 1.00252700e+00 9.63298202e-01 9.74073708e-01 1.01594520e+00 9.93440568e-01 1.03477216e+00 1.01927280e+00 1.02205861e+00 8.67260635e-01 8.77031207e-01 8.77457500e-01 8.68417919e-01 8.62716913e-01 8.82869840e-01 8.98340762e-01 8.94238651e-01 8.71436775e-01 8.68614674e-01 8.55053008e-01 8.63078535e-01 8.50546956e-01 8.61534417e-01 8.62471461e-01 8.71776581e-01 8.74226511e-01 8.75336230e-01 8.77461553e-01 8.75518382e-01 8.76799107e-01 8.60875428e-01 8.53249550e-01 0. 0. 0. 0. 0. 0. 0. 0. 0. 0. 0. 0. 0. 0. 8.39595675e-01 8.26341629e-01 8.25133801e-01 8.22431803e-01 8.25165391e-01 8.30630064e-01 8.32607985e-01 8.28498304e-01 8.22680950e-01 9.73143518e-01 9.01740909e-01 9.19040859e-01 9.13638055e-01 9.03393149e-01 8.93867314e-01 9.15912688e-01 9.29993033e-01 8.38934779e-01 9.35181201e-01 8.57993960e-01 8.84442091e-01 9.42248344e-01 8.92623961e-01 9.24711347e-01 9.54522491e-01 9.74598467e-01 9.39367354e-01 9.20950353e-01 9.24603760e-01 8.44426394e-01 8.77646983e-01 9.08092797e-01 8.79273832e-01 8.97239208e-01 8.92443955e-01 9.25798953e-01 9.00728822e-01 9.23459709e-01 9.58171964e-01 8.91321659e-01 8.61438036e-01 8.55964422e-01 8.19971204e-01 8.15349638e-01 8.01754951e-01 8.00932884e-01 7.94325531e-01 8.10247540e-01 8.93290401e-01 8.09866130e-01 8.06894958e-01 7.79888570e-01 7.75770485e-01 7.81548858e-01 7.79957533e-01 8.02751720e-01 7.80482888e-01 7.66695857e-01 7.55078614e-01 7.21299589e-01 7.26987004e-01 7.22679853e-01 7.19075561e-01 7.11206377e-01 7.27336526e-01 7.18240082e-01 7.27214038e-01 7.31275439e-01 0. 0. 0. 0. 0. 0. 0. 0. 0. 0. 0. 0. 0. 0. 0. 0. 6.59990966e-01 6.60899103e-01 6.67529941e-01 6.81792557e-01 6.87925518e-01 6.81013823e-01 0. 7.26845920e-01 7.26027727e-01 7.30881095e-01 7.47453511e-01 7.58651793e-01 7.60127604e-01 7.61702895e-01 7.74197936e-01 7.04170048e-01 8.18032205e-01 8.24688852e-01 8.13779533e-01 8.12326491e-01 8.19950759e-01 8.28781843e-01 8.66302431e-01 8.48927021e-01 7.76098788e-01 8.39240789e-01 8.34052801e-01 7.96452880e-01 8.64868760e-01 9.45024669e-01 8.65953207e-01 8.53234708e-01 8.65876198e-01 8.73542249e-01 9.02554214e-01 8.74328077e-01 8.47803831e-01 8.93133461e-01 8.44248652e-01 8.65461469e-01 8.86814952e-01 8.66390109e-01 9.12499607e-01 9.20230448e-01 9.11097527e-01 8.97356391e-01 8.85269284e-01 8.59946668e-01 8.33384275e-01 8.53023052e-01 8.79353702e-01 8.16431999e-01 8.16652656e-01 8.17258537e-01 8.15028369e-01 8.05926085e-01 8.05778444e-01 8.09940815e-01 7.96719432e-01 7.94330239e-01 8.26259255e-01 8.22782636e-01 8.64633799e-01 9.02561784e-01 9.15856898e-01 9.04343665e-01 9.08285618e-01 8.99356365e-01 9.15098786e-01 9.09651935e-01 9.12999928e-01 8.51282299e-01 8.54830027e-01 8.57272506e-01 9.11275685e-01 9.84137058e-01 9.67919290e-01 9.15299773e-01 9.07758474e-01 9.71191347e-01 9.77731645e-01 9.56858695e-01 9.57409859e-01 9.76647019e-01 1.08572066e+00 9.23929095e-01 9.99059260e-01 9.48597193e-01 9.50679839e-01 9.50832009e-01 9.62724686e-01 9.65879023e-01 9.53854084e-01 9.88067508e-01 9.71064210e-01 8.45824361e-01 8.59251320e-01 9.05935645e-01 9.47560906e-01 9.98535037e-01 9.48445201e-01 9.73468542e-01 9.77147639e-01 9.63108420e-01 9.41201508e-01 9.41008270e-01 9.54941154e-01 0. 0. 0. 0. 0. 0. 0. 0. 0. 0. 9.04473066e-01 8.95821631e-01 9.08332646e-01 9.06710029e-01 0. 0. 0. 0. 0. 0. 0. 0. 0. 0. 0. 0. 0. 9.99539852e-01 9.04563010e-01 7.51849413e-01 7.23971128e-01 6.82591617e-01 7.23318994e-01 7.21093833e-01 7.19361246e-01 7.18203723e-01 7.15750515e-01 7.16903448e-01 7.51759470e-01 7.98775911e-01 8.36427152e-01 8.40354860e-01 8.30848277e-01 8.19235027e-01 8.07595909e-01 8.10531676e-01 8.07584882e-01 8.39437485e-01 8.66483331e-01 8.10402870e-01 9.30690348e-01 8.55873585e-01 8.66199374e-01 8.82819772e-01 9.07732487e-01 9.52766418e-01 9.05370414e-01 8.90798092e-01 9.28219438e-01 8.70517850e-01 8.84176135e-01 8.85160804e-01 8.62206399e-01 8.45133483e-01 8.35074127e-01 8.35881054e-01 8.32866967e-01 8.28752577e-01 8.43343616e-01 8.08546901e-01 8.13015759e-01 8.10514808e-01 8.09255779e-01 8.09142053e-01 8.07891309e-01 8.18004489e-01 8.22147369e-01 8.18123162e-01 8.21835339e-01 8.32013249e-01 8.24558854e-01 8.25973570e-01 8.21768999e-01 8.15911889e-01 8.14272881e-01 0. 0. 0. 0. 9.78017747e-01 9.78153110e-01 9.75254297e-01 9.76668060e-01 0. 0. 0. 9.34841871e-01 9.37293053e-01 9.17516172e-01 9.31051075e-01 9.07325208e-01 0. 0. 0. 0. 0. 0. 0. 0. 0. 0. 0. 0. 0. 0. 0. 0. 0. 0. 0. 0. 0. 0. 0. 0. 0. 0. 0. 0. 0. 0. 0. 0. 0. 0. 0. 0. 0. 0. 0. 0. 0. 0. 0. 0. 0. 7.95152068e-01 7.91070282e-01 7.84933805e-01 7.78276443e-01 7.76348948e-01 7.66989887e-01 7.62212157e-01 7.58025765e-01 7.55750060e-01 7.50099182e-01 7.44811654e-01 0. 0. 0. 0. 0. 0. 0. 0. 0. 0. 0. 0. 0. 0. 0. 0. 0. 0. 0. 0. 0. 0. 0. 0. 0. 1.05097258e+00 1.10019159e+00 0. 0. 0. 8.50968957e-01 8.51769984e-01 8.71900976e-01 8.63652527e-01 0. 8.10326695e-01 8.58726144e-01 8.43306601e-01 8.13834667e-01 8.25334013e-01 9.10972178e-01 9.18447495e-01 8.96650732e-01 8.93913925e-01 0. 9.24530566e-01 9.39194143e-01 9.48896468e-01 9.52240348e-01 0. 0. 0. 9.77395475e-01 9.76646364e-01 9.90874767e-01 9.80511248e-01 9.63660419e-01 9.60850120e-01 9.55122054e-01 9.39204335e-01 9.29118752e-01 9.39350367e-01 9.47538316e-01 9.44364846e-01 9.44717109e-01 9.44497108e-01 9.38334703e-01 9.36705470e-01 9.32562351e-01 9.27114904e-01 0. 0. 0. 0. 0. 0. 0. 0. 0. 0. 0. 0. 0. 0. 0. 0. 0. 0. 0. 0. 0.
    9.82876599e-01 9.52722788e-01 9.51481938e-01 9.43146050e-01 9.42205787e-01 0. 9.44223046e-01 9.59574521e-01 9.60028589e-01 9.67864811e-01 9.68467951e-01 1.01159906e+00 1.03221726e+00 0. 0. 9.05905306e-01 8.83911014e-01 0. 8.79021823e-01 8.90932858e-01 9.27438021e-01 9.58558500e-01 9.51816559e-01 8.65537167e-01 8.86347294e-01 8.68988454e-01 8.68661165e-01 8.69691968e-01 8.51678193e-01 8.63513052e-01 8.77833605e-01 8.87879968e-01 8.89518499e-01 8.80105078e-01 8.76031697e-01 8.81092727e-01 8.68132114e-01 8.62179935e-01 9.05205667e-01 9.00900960e-01 9.11567986e-01 0. 0. 0. 0. 0. 0. 0. 0. 0. 0. 8.13133001e-01 8.06171000e-01 8.22158635e-01 8.11582625e-01 8.19998622e-01 8.22069049e-01 8.21957886e-01 8.24467003e-01 8.23582530e-01 8.14888656e-01 9.57760990e-01 9.50988293e-01 9.04333651e-01 8.77548754e-01 8.74447584e-01 8.63239706e-01 8.13682556e-01 8.73495340e-01 9.06719625e-01 8.53442967e-01 8.45084667e-01 9.46720898e-01 9.33726907e-01 8.88383210e-01 8.83096039e-01 9.39847291e-01 1.26322377e+00 9.37309325e-01 8.21801603e-01 8.93286705e-01 9.19240355e-01 8.43629479e-01 8.79146755e-01 8.62986922e-01 8.60046387e-01 8.86000097e-01 9.14977789e-01 9.06504750e-01 9.08245265e-01 9.00219798e-01 8.73242974e-01 8.54247868e-01 8.49212885e-01 8.11830401e-01 9.25101340e-01 9.11748111e-01 8.05083990e-01 8.05580795e-01 8.09048951e-01 8.14270616e-01 8.04693639e-01 9.08896863e-01 7.87480891e-01 7.82029688e-01 7.93085396e-01 7.86531687e-01 7.79293418e-01 0. 7.60404706e-01 7.51567304e-01 7.39850342e-01 7.37797856e-01 7.25907862e-01 7.41584063e-01 7.33947635e-01 7.24461079e-01 7.25576997e-01 1.35198140e+00 1.28727520e+00 0. 0. 0. 0. 0. 0. 0. 0. 0. 0. 0. 0. 0. 0. 0. 0. 6.61780357e-01 6.61056876e-01 6.66603804e-01 6.63705289e-01 6.61853373e-01 6.75415277e-01 0. 6.74901962e-01 7.13349581e-01 7.09200144e-01 7.12299287e-01 7.19566643e-01 7.24459529e-01 7.42811203e-01 7.50749528e-01 7.80825138e-01 7.86236525e-01 7.87220776e-01 7.29110420e-01 8.31792891e-01 9.18758810e-01 8.45470965e-01 8.26510668e-01 8.36471021e-01 7.69998431e-01 8.19668829e-01 8.20720792e-01 8.16329122e-01 8.44545841e-01 8.71891022e-01 8.75843823e-01 9.22227085e-01 8.68964672e-01 8.66761148e-01 8.55828524e-01 8.61506343e-01 8.09773564e-01 8.13961208e-01 8.49006593e-01 8.54878724e-01 8.80696595e-01 9.17998314e-01 9.11638260e-01 9.31819975e-01 9.07697499e-01 8.93240929e-01 8.96333039e-01 8.59372973e-01 8.52513790e-01 8.21775734e-01 8.29359829e-01 8.13883841e-01 8.05786669e-01 8.05400372e-01 8.06008279e-01 7.99746096e-01 7.96889365e-01 7.94906914e-01 7.88143516e-01 7.90735960e-01 8.12532783e-01 8.28436196e-01 7.94664562e-01 8.81112218e-01 8.95943344e-01 9.04232204e-01 9.02724087e-01 9.01603460e-01 8.95234525e-01 8.70503426e-01 8.83764982e-01 8.71887267e-01 8.55335414e-01 8.73358846e-01 8.70511115e-01 9.17001545e-01 9.33688104e-01 9.43211794e-01 9.62855041e-01 9.22475457e-01 9.55876529e-01 8.74742091e-01 9.53779399e-01 9.65735137e-01 9.72773135e-01 9.30214584e-01 8.80440652e-01 9.14207280e-01 9.82441127e-01 9.49274421e-01 9.30460751e-01 9.39096928e-01 9.27988410e-01 8.61400902e-01 9.02865291e-01 8.78144681e-01 8.83614480e-01 8.87753844e-01 8.99902940e-01 9.10190403e-01 9.00183260e-01 9.43865657e-01 8.92250478e-01 9.33195293e-01 9.24322426e-01 9.20777321e-01 9.35069025e-01 0. 0. 0. 0. 0. 0. 0. 0. 0. 9.07243550e-01 9.08966959e-01 9.20722425e-01 9.19641674e-01 9.16933775e-01 9.09066737e-01 9.15077031e-01 0. 0. 0. 0. 0. 0. 0. 0. 0. 0. 0. 0. 0. 0. 0. 6.74640000e-01 7.17239618e-01 7.17164934e-01 7.17887640e-01 7.14717448e-01 7.10087419e-01 7.20744014e-01 7.39300847e-01 7.76647329e-01 0. 8.16411197e-01 8.05913746e-01 7.95393586e-01 7.95850039e-01 8.09953928e-01 8.02246034e-01 9.91587698e-01 9.20647562e-01 9.05778944e-01 8.99235845e-01 8.49314511e-01 8.72756600e-01 8.99393797e-01 9.29978311e-01 8.91079664e-01 8.96641731e-01 8.86614263e-01 8.97187471e-01 8.98004472e-01 8.96031678e-01 8.97593975e-01 8.82724047e-01 8.67242098e-01 8.63375545e-01 8.45255136e-01 8.49106908e-01 8.38205397e-01 8.46736193e-01 8.21182728e-01 7.95161486e-01 8.00177038e-01 7.95204043e-01 7.92040229e-01 7.94665992e-01 8.02368820e-01 8.13189864e-01 8.22490096e-01 8.22554827e-01 8.16676855e-01 8.22358429e-01 8.21787596e-01 8.16406310e-01 8.13509643e-01 8.12028944e-01 0. 0. 0. 9.71433580e-01 9.61362302e-01 9.64528441e-01 9.57354605e-01 9.48535502e-01 0. 9.43856835e-01 0. 9.41677809e-01 9.31606293e-01 9.38577831e-01 9.37616765e-01 9.38302159e-01 0. 0. 0. 0. 0. 0. 0. 0. 0. 0. 0. 0. 0. 0. 0. 0. 0. 0. 0. 0. 0. 0. 0. 0. 0. 0. 0. 0. 0. 0. 0. 0. 0. 0. 0. 0. 0. 0. 0. 0. 0. 0. 0. 0. 8.05212796e-01 0. 7.89260387e-01 7.80053377e-01 7.71470129e-01 7.67410994e-01 7.64351845e-01 7.59325802e-01 7.56857216e-01 7.53354073e-01 0. 7.44845808e-01 0. 0. 0. 0. 0. 0. 0. 0. 0. 0. 0. 0. 0. 0. 0. 0. 0. 0. 0. 0. 0. 0. 0. 0. 0. 1.11079109e+00 0. 1.17367685e+00 0. 0. 8.48181963e-01 8.61162603e-01 8.57993901e-01 8.67667377e-01 8.64323795e-01 8.09412420e-01 8.43552232e-01 8.28542292e-01 8.15100431e-01 8.02889824e-01 9.22241390e-01 8.81565690e-01 8.79142523e-01 8.78736258e-01 8.87832403e-01 9.03301895e-01 9.07033026e-01 9.08756733e-01 8.92458260e-01 0. 0. 0. 9.58410084e-01 9.77029145e-01 9.77927029e-01 9.57850993e-01 9.15727437e-01 9.30876136e-01 9.33201730e-01 9.31670785e-01 9.38528776e-01 9.49814856e-01 9.62887108e-01 9.61736262e-01 9.63371456e-01 9.60455060e-01 9.58947062e-01 9.64097798e-01 9.60015655e-01 9.45863485e-01 0. 0. 0. 9.09775913e-01 0. 0. 0. 0. 0. 0. 0. 0. 0. 0. 0. 0. 0. 0. 0. 0. 0.
    9.33043301e-01 9.46959436e-01 9.59603608e-01 9.37938631e-01 0. 9.45176423e-01 9.46909547e-01 9.57201779e-01 9.55051959e-01 1.02397478e+00 1.03222525e+00 1.04171169e+00 1.03058779e+00 0. 0. 0. 0. 0. 0. 0. 0. 0. 9.37982917e-01 8.67566824e-01 8.87791693e-01 8.66027772e-01 8.66122901e-01 8.64512324e-01 8.67866099e-01 8.74786794e-01 8.75539780e-01 8.78223002e-01 8.69982719e-01 8.71300638e-01 8.71454298e-01 8.67887139e-01 8.68140042e-01 8.71638119e-01 9.26952660e-01 9.08103526e-01 9.10509646e-01 0. 0. 0. 0. 0. 0. 0. 0. 0. 7.75111675e-01 7.94681489e-01 8.01866531e-01 8.03673089e-01 8.04609060e-01 8.25102210e-01 8.16512108e-01 8.29371393e-01 8.29922020e-01 0. 9.80312407e-01 8.96394849e-01 8.89882863e-01 8.75491738e-01 8.28921020e-01 8.85371983e-01 8.56474042e-01 8.48717093e-01 8.31362069e-01 8.67800474e-01 8.80670846e-01 8.83218586e-01 9.00144637e-01 8.65422964e-01 8.31537962e-01 8.77443552e-01 8.78417134e-01 8.93546939e-01 9.04308021e-01 9.09021020e-01 9.11989391e-01 8.93100798e-01 8.35693300e-01 8.73366356e-01 8.76314819e-01 9.03068721e-01 8.53166521e-01 8.93030524e-01 9.06100154e-01 9.05084670e-01 8.73590291e-01 8.83920312e-01 8.46611381e-01 8.12175453e-01 8.69058073e-01 9.32532668e-01 9.17123616e-01 8.82659614e-01 7.97975481e-01 9.05364335e-01 8.51713598e-01 8.90519559e-01 9.08160031e-01 7.92371929e-01 7.92653024e-01 7.72009969e-01 7.87245572e-01 0. 7.57165909e-01 7.51272678e-01 7.42376745e-01 7.36478209e-01 7.35593259e-01 7.18577504e-01 0. 0. 0. 0. 1.31626713e+00 1.32124341e+00 1.31364715e+00 0. 0. 0. 0. 0. 0. 0. 0. 0. 0. 0. 0. 0. 0. 0. 6.63514555e-01 6.68263078e-01 6.67556703e-01 6.66638672e-01 6.68318510e-01 6.74652696e-01 0. 0. 7.05035925e-01 6.96684539e-01 7.06144214e-01 7.06430078e-01 7.18898892e-01 7.19515502e-01 7.40346491e-01 7.44763136e-01 7.59089887e-01 7.71877289e-01 8.04393411e-01 9.44968283e-01 8.64931643e-01 8.31710756e-01 7.65263796e-01 8.61109078e-01 8.29294980e-01 8.22987974e-01 8.22066724e-01 8.22218060e-01 8.32104504e-01 8.49711716e-01 8.58462930e-01 8.26927245e-01 8.56983066e-01 8.62766683e-01 8.66251051e-01 8.88269246e-01 8.76141787e-01 8.80589366e-01 8.51366937e-01 8.54866564e-01 8.70508850e-01 8.91503155e-01 9.38330412e-01 9.39381897e-01 8.95010352e-01 8.85787606e-01 8.78492594e-01 8.74964118e-01 8.85040462e-01 8.53731155e-01 8.39171231e-01 8.12621176e-01 8.07814777e-01 8.11910868e-01 7.98284471e-01 7.92529225e-01 7.85947204e-01 7.85767376e-01 7.79916644e-01 8.28537822e-01 8.48927975e-01 8.70434880e-01 8.79292607e-01 8.86435926e-01 8.90858412e-01 8.91970038e-01 8.92480373e-01 8.94141257e-01 8.86319101e-01 8.87594461e-01 8.79967988e-01 8.78824532e-01 8.75899792e-01 8.73085737e-01 8.76082957e-01 9.22078192e-01 9.13610876e-01 9.22296941e-01 9.33264732e-01 9.30711687e-01 9.37938035e-01 9.39282715e-01 9.61301386e-01 9.43555951e-01 9.65661108e-01 9.50398743e-01 9.52036977e-01 9.33469653e-01 9.64377522e-01 9.50401306e-01 9.19714868e-01 9.22761381e-01 9.20687854e-01 9.34283912e-01 8.67314994e-01 9.01984572e-01 8.94293368e-01 8.71443212e-01 8.64560127e-01 8.62217963e-01 8.01982105e-01 8.51607919e-01 8.95522773e-01 9.12234366e-01 9.12151337e-01 9.19800401e-01 0. 0. 0. 0. 0. 0. 0. 0. 0. 0. 0. 9.12474811e-01 0. 9.24768150e-01 0. 9.25813198e-01 0. 0. 0. 0. 0. 0. 0. 0. 0. 0. 0. 0. 0. 0. 0. 0. 0. 7.28091180e-01 7.20065594e-01 7.14871705e-01 7.13899732e-01 7.13219643e-01 7.22168505e-01 0. 7.73958921e-01 0. 0. 0. 7.76956797e-01 8.63958359e-01 7.79439747e-01 9.65934634e-01 1.05019975e+00 1.04260230e+00 1.01170993e+00 9.40286279e-01 9.05691326e-01 8.75370383e-01 8.63743067e-01 8.49533558e-01 8.71942639e-01 8.58491421e-01 8.58390272e-01 9.39830363e-01 9.28936839e-01 8.96431625e-01 9.02639389e-01 9.03565764e-01 8.88280392e-01 8.69067788e-01 8.59332502e-01 8.14104557e-01 8.44996154e-01 8.57865632e-01 8.32527936e-01 8.12447071e-01 8.00011992e-01 7.91056693e-01 7.85529852e-01 7.78815866e-01 7.97943532e-01 8.13254416e-01 8.20473313e-01 8.10420394e-01 8.15407395e-01 8.29949200e-01 8.11894536e-01 8.11093986e-01 8.07336032e-01 8.05216432e-01 0. 0. 0. 0. 9.86400008e-01 9.69844401e-01 9.76788402e-01 0. 0. 9.39067125e-01 9.35025990e-01 9.22406495e-01 9.28516507e-01 9.25947547e-01 9.22466099e-01 9.30190623e-01 0. 0. 0. 0. 0. 0. 0. 0. 0. 0. 0. 0. 0. 0. 0. 0. 0. 0. 0. 0. 0. 0. 0. 0. 0. 0. 0. 0. 0. 0. 0. 0. 0. 0. 0. 0. 0. 0. 0. 0. 0. 0. 0. 0. 8.20833385e-01 0. 0. 7.77938187e-01 7.75032818e-01 7.62195468e-01 7.61652529e-01 7.53255367e-01 7.47226715e-01 7.49076247e-01 7.46205866e-01 0. 0. 0. 0. 0. 0. 0. 0. 0. 0. 0. 0. 0. 0. 0. 0. 0. 0. 0. 0. 0. 0. 0. 0. 0. 0. 1.17555165e+00 1.16704690e+00 1.16591454e+00 0. 0. 8.25972497e-01 8.27081740e-01 8.26459050e-01 8.58244777e-01 8.65044653e-01 8.48863482e-01 8.27600658e-01 8.27385724e-01 8.54240716e-01 8.65680814e-01 8.61354828e-01 8.63272667e-01 8.68825078e-01 8.83605540e-01 8.76004696e-01 9.13432002e-01 8.96494567e-01 9.21738863e-01 8.67746174e-01 8.51176918e-01 8.48038614e-01 0. 0. 0. 0. 0. 9.06766236e-01 9.00377095e-01 9.05743837e-01 9.33664203e-01 0. 9.77526903e-01 9.52480078e-01 9.50875103e-01 9.52846825e-01 9.47582960e-01 9.50801730e-01 9.50688481e-01 9.58852589e-01 9.57968354e-01 9.69876230e-01 9.33785081e-01 9.79416251e-01 8.91539454e-01 8.75494480e-01 0. 0. 0. 0. 0. 0. 0. 0. 0. 0. 0. 0. 0. 0. 0. 0.
    0. 9.48180616e-01 9.37869549e-01 9.38463926e-01 9.46438491e-01 9.44762349e-01 9.35784578e-01 9.36915159e-01 9.24522221e-01 1.03928304e+00 1.02329564e+00 1.03714490e+00 1.04466558e+00 0. 0. 0. 0. 0. 0. 0. 0. 0. 0. 8.58158112e-01 8.75873208e-01 8.64699066e-01 8.63871276e-01 8.68097544e-01 8.66539121e-01 8.51425827e-01 8.72915864e-01 8.75702202e-01 8.78359735e-01 8.82704198e-01 8.80122066e-01 8.82945001e-01 8.86784673e-01 8.95772338e-01 9.11971569e-01 9.11598504e-01 9.14361954e-01 0. 9.15263534e-01 0. 0. 0. 0. 0. 8.03357899e-01 8.01231503e-01 7.98635066e-01 7.96078384e-01 7.97515690e-01 8.06488037e-01 8.04138362e-01 8.12570989e-01 8.14363778e-01 8.23870778e-01 8.26510608e-01 8.23006868e-01 9.01253879e-01 8.64726961e-01 8.60272825e-01 8.62016022e-01 8.49852622e-01 8.48298788e-01 8.37332845e-01 8.51172507e-01 8.61903548e-01 8.63945305e-01 9.37100708e-01 8.83260846e-01 8.69807303e-01 8.16026270e-01 8.45247388e-01 8.87759268e-01 8.48700464e-01 8.95547152e-01 9.42745090e-01 9.51324463e-01 9.02270257e-01 9.19253647e-01 8.90708327e-01 8.81596148e-01 8.64330828e-01 9.05111253e-01 8.42152178e-01 8.85062933e-01 8.97424579e-01 9.14790690e-01 9.16239321e-01 9.09664035e-01 8.95524502e-01 8.97629023e-01 9.05493736e-01 8.83153319e-01 8.86625707e-01 9.20123219e-01 9.05676425e-01 8.41823995e-01 8.70028734e-01 9.00976777e-01 8.19662929e-01 8.27930033e-01 8.02578926e-01 8.04244578e-01 7.57025301e-01 7.49673426e-01 7.49721169e-01 7.44150043e-01 7.40867019e-01 7.49255002e-01 7.48759270e-01 0. 0. 0. 0. 0. 0. 0. 0. 0. 0. 0. 0. 0. 0. 0. 0. 0. 0. 0. 0. 0. 0. 0. 6.62890434e-01 6.60686672e-01 6.64637744e-01 6.66121542e-01 6.66957498e-01 0. 0. 0. 0. 7.05714226e-01 7.00178564e-01 7.00662196e-01 7.07600832e-01 7.10926533e-01 7.37950504e-01 7.45978892e-01 7.39275515e-01 7.14216650e-01 7.17730463e-01 9.51273859e-01 9.42750514e-01 7.67177820e-01 8.08728695e-01 8.31498206e-01 8.54957700e-01 8.32961440e-01 8.26694667e-01 8.30956399e-01 8.39655340e-01 8.50047529e-01 8.48261237e-01 8.47391844e-01 8.48817885e-01 8.59353662e-01 8.68174613e-01 8.66347075e-01 8.57781947e-01 8.52249742e-01 8.42380881e-01 8.46844435e-01 8.59572172e-01 8.68306816e-01 8.65263879e-01 8.54722679e-01 8.65618169e-01 8.79742444e-01 8.68544638e-01 9.15571272e-01 8.60470593e-01 8.65318596e-01 8.55401993e-01 8.50962758e-01 8.21644545e-01 8.26321363e-01 8.21431637e-01 8.08807909e-01 7.96229124e-01 8.31001759e-01 8.62307727e-01 8.65189672e-01 9.15926576e-01 9.28826988e-01 9.46279109e-01 8.89349520e-01 8.92214894e-01 8.88643205e-01 8.94798994e-01 8.97440195e-01 9.01838064e-01 9.05481875e-01 8.96370769e-01 8.84383261e-01 8.87822628e-01 8.82573247e-01 8.79196644e-01 8.98630440e-01 9.03594673e-01 8.96254301e-01 9.17204678e-01 9.02041972e-01 9.32423532e-01 9.21476841e-01 9.88157928e-01 1.06372821e+00 9.73783553e-01 9.62434590e-01 1.03128922e+00 9.42111194e-01 1.06373370e+00 9.44494069e-01 9.29470181e-01 9.21792030e-01 9.27070439e-01 9.00058448e-01 9.20759082e-01 8.99789095e-01 8.85120213e-01 8.43728125e-01 8.24583292e-01 8.52353215e-01 8.86739135e-01 8.46260905e-01 8.95950317e-01 9.02397513e-01 9.03015256e-01 0. 0. 0. 0. 0. 0. 0. 0. 0. 0. 0. 0. 0. 0. 0. 0. 9.24127579e-01 0. 0. 0. 0. 0. 0. 0. 0. 0. 0. 0. 0. 0. 0. 9.74819541e-01 0. 0. 8.42160404e-01 0. 0. 0. 0. 7.25007832e-01 0. 0. 0. 0. 0. 0. 0. 1.05199671e+00 1.02287173e+00 1.06596422e+00 1.20082498e+00 1.05546057e+00 8.97962630e-01 8.99286270e-01 8.63931298e-01 7.99125254e-01 8.84317636e-01 8.39208663e-01 8.85599911e-01 8.89120400e-01 8.96159947e-01 8.90981138e-01 8.80164385e-01 9.16304052e-01 9.40431774e-01 8.91307771e-01 8.86944830e-01 9.05086339e-01 8.72158229e-01 8.52879584e-01 8.56966257e-01 7.89634883e-01 7.92654514e-01 7.80272782e-01 7.97696114e-01 7.77307212e-01 7.78538883e-01 7.88050115e-01 8.07295561e-01 8.12860429e-01 8.20585191e-01 8.23761642e-01 8.18211496e-01 8.10481131e-01 8.08294415e-01 8.02565813e-01 7.98472822e-01 0. 0. 0. 9.85538960e-01 9.81897295e-01 9.72580492e-01 0. 0. 0. 9.37171161e-01 9.45118248e-01 9.28871214e-01 9.20848370e-01 9.32646096e-01 9.23558712e-01 0. 0. 0. 0. 0. 0. 0. 0. 0. 0. 0. 0. 0. 0. 0. 0. 0. 0. 0. 0. 0. 0. 0. 0. 0. 0. 0. 0. 0. 0. 0. 0. 0. 0. 0. 0. 0. 0. 0. 0. 0. 0. 0. 0. 8.25102031e-01 0. 0. 0. 0. 7.83037245e-01 7.67960131e-01 7.60519266e-01 7.53174186e-01 7.43848801e-01 0. 0. 0. 0. 0. 0. 0. 0. 0. 0. 0. 0. 0. 0. 0. 0. 0. 0. 0. 0. 0. 0. 0. 0. 0. 0. 0. 1.20945239e+00 1.20185947e+00 1.16733110e+00 1.15481925e+00 0. 0. 7.88608611e-01 8.05812240e-01 8.23625386e-01 7.90960491e-01 8.22963953e-01 8.34670663e-01 8.29824448e-01 8.14259350e-01 7.99245417e-01 8.54711592e-01 8.56191039e-01 8.54506969e-01 8.49777877e-01 8.46776307e-01 8.55853677e-01 8.73108506e-01 8.76059711e-01 8.71971548e-01 8.55302691e-01 8.52656245e-01 8.35420370e-01 8.64462256e-01 0. 0. 0. 0. 0. 0. 0. 0. 9.58345830e-01 9.68775988e-01 9.57365274e-01 0. 9.40043628e-01 9.35780227e-01 9.29730833e-01 9.30491805e-01 9.33461964e-01 9.28136408e-01 9.51049209e-01 9.15422857e-01 8.99152756e-01 8.89198124e-01 0. 0. 0. 0. 0. 0. 0. 0. 0. 0. 0. 0. 0. 0. 0. 0. 0.
    9.49015379e-01 9.50733542e-01 9.51929867e-01 9.52974737e-01 9.50090587e-01 9.46473718e-01 9.37013209e-01 9.51906681e-01 1.03942025e+00 1.03306389e+00 1.03190267e+00 1.02908087e+00 1.03931832e+00 0. 0. 0. 0. 0. 0. 0. 0. 0. 0. 0. 0. 8.49665940e-01 8.56030822e-01 8.52249742e-01 8.53299916e-01 8.47157419e-01 8.67324233e-01 8.80368054e-01 8.79402459e-01 8.83467257e-01 8.84559989e-01 8.88246417e-01 8.93458068e-01 8.94007742e-01 8.95869076e-01 9.32706892e-01 9.22571242e-01 0. 0. 0. 0. 0. 0. 0. 8.07403564e-01 8.10483634e-01 8.13147664e-01 8.14696908e-01 8.14995706e-01 8.12159121e-01 8.14427972e-01 8.13054502e-01 8.04497361e-01 8.00960302e-01 8.17219377e-01 8.25578332e-01 8.11220109e-01 8.49398494e-01 8.18924189e-01 8.48475039e-01 8.49232972e-01 8.41702223e-01 8.69815886e-01 8.84900331e-01 8.49450648e-01 8.37320149e-01 8.68665040e-01 8.85140717e-01 8.71615052e-01 8.60235870e-01 8.56604397e-01 8.39587152e-01 8.71907473e-01 9.19442296e-01 9.10413682e-01 9.13713872e-01 9.46221471e-01 9.50853467e-01 9.30553854e-01 9.00242269e-01 8.31210911e-01 8.81370008e-01 9.17127728e-01 9.61404264e-01 9.19374049e-01 9.17309582e-01 9.20105040e-01 9.18410897e-01 8.69225979e-01 9.26892817e-01 8.70544255e-01 8.20575655e-01 8.99769127e-01 8.85897875e-01 8.65259707e-01 8.50682735e-01 8.57252717e-01 8.22784603e-01 8.34130585e-01 8.50872159e-01 8.04758072e-01 7.72658467e-01 8.22759867e-01 7.70516515e-01 7.42444873e-01 7.40959048e-01 7.42444336e-01 7.44152188e-01 0. 0. 0. 0. 0. 0. 0. 0. 0. 0. 0. 0. 0. 0. 0. 0. 0. 0. 0. 0. 0. 0. 0. 0. 0. 0. 0. 0. 0. 0. 0. 0. 0. 0. 7.19766796e-01 7.20452487e-01 7.22216666e-01 7.32605219e-01 7.62440085e-01 7.61535466e-01 7.03239083e-01 7.58169353e-01 7.89197862e-01 9.58085775e-01 7.63381600e-01 7.74143636e-01 8.08021843e-01 8.82413447e-01 8.60001087e-01 8.25393677e-01 8.32736194e-01 8.39411974e-01 8.53389442e-01 8.70573640e-01 8.56739759e-01 8.45834374e-01 8.46908867e-01 8.58403563e-01 9.07005966e-01 8.60143483e-01 8.50012183e-01 8.40462744e-01 8.29561412e-01 8.37463558e-01 8.45913112e-01 8.52504194e-01 8.39708507e-01 8.63778234e-01 9.41776037e-01 8.63084853e-01 8.64676952e-01 8.94951165e-01 8.95116925e-01 8.94898057e-01 8.81460667e-01 8.72043371e-01 8.59908342e-01 8.72522116e-01 8.74507725e-01 8.71461928e-01 8.73431504e-01 8.23129892e-01 9.70955372e-01 9.81266737e-01 9.96726871e-01 1.00173819e+00 9.29109395e-01 9.02090371e-01 8.95911753e-01 8.90849888e-01 8.99007440e-01 9.09117699e-01 9.26443517e-01 9.16482151e-01 9.14270759e-01 8.98786008e-01 8.88090849e-01 9.41684127e-01 8.89979184e-01 9.11208391e-01 9.04899180e-01 9.04446483e-01 9.15730834e-01 9.30133104e-01 9.41982448e-01 9.30970550e-01 9.92167890e-01 9.68612552e-01 9.51195478e-01 9.53190148e-01 9.51915741e-01 9.48770344e-01 1.06059873e+00 9.57476318e-01 9.05395806e-01 8.89276266e-01 9.38550532e-01 9.09469545e-01 9.33596075e-01 8.63044620e-01 9.17480111e-01 0. 0. 0. 0. 0. 8.79598916e-01 8.78625274e-01 8.85592461e-01 0. 0. 0. 0. 0. 0. 0. 0. 0. 0. 0. 0. 0. 0. 0. 0. 0. 0. 0. 0. 0. 0. 0. 0. 0. 0. 0. 0. 0. 0. 0. 9.79098320e-01 9.72713232e-01 9.62135673e-01 0. 0. 0. 0. 0. 0. 0. 0. 0. 0. 0. 0. 0. 1.05775023e+00 1.10949373e+00 1.07974911e+00 1.21379423e+00 1.08433759e+00 1.19883049e+00 1.02347302e+00 9.19949591e-01 8.45363915e-01 8.82750511e-01 9.18300688e-01 9.64456439e-01 8.99454176e-01 8.88328254e-01 8.64362895e-01 9.02867913e-01 9.24229980e-01 9.44169819e-01 9.15726006e-01 9.03204739e-01 9.00749862e-01 8.80633175e-01 9.34514642e-01 8.58279288e-01 8.84048402e-01 8.74233425e-01 8.11806858e-01 8.17093492e-01 8.23272407e-01 7.91349769e-01 8.02517593e-01 8.06844115e-01 8.17300320e-01 8.29737663e-01 8.49435866e-01 8.33566308e-01 8.27176452e-01 8.34698677e-01 8.19640100e-01 0. 0. 0. 0. 0. 0. 0. 0. 0. 0. 0. 9.52857852e-01 9.47040260e-01 9.07292306e-01 9.48970616e-01 9.42731023e-01 0. 0. 0. 0. 0. 0. 0. 0. 0. 0. 0. 0. 0. 0. 0. 0. 0. 0. 0. 0. 0. 0. 0. 0. 0. 0. 0. 0. 0. 0. 0. 0. 0. 0. 0. 0. 0. 0. 0. 0. 0. 0. 0. 0. 0. 8.18294048e-01 0. 0. 0. 7.67066002e-01 7.61425078e-01 7.56527185e-01 7.47841120e-01 0. 0. 0. 0. 0. 0. 0. 0. 0. 0. 0. 0. 0. 0. 0. 0. 0. 0. 0. 0. 0. 0. 0. 0. 0. 0. 1.14695919e+00 1.19603086e+00 1.16826177e+00 1.21412385e+00 1.19683027e+00 1.18219376e+00 0. 0. 7.92305350e-01 7.88740516e-01 7.83965409e-01 7.81743586e-01 7.78495252e-01 7.81240702e-01 7.86009610e-01 7.74506867e-01 8.13986123e-01 8.54309022e-01 8.39479506e-01 8.48807454e-01 7.97652423e-01 8.31398308e-01 8.46159101e-01 8.63557339e-01 8.51593137e-01 8.52412522e-01 8.44182193e-01 8.08924854e-01 8.08001459e-01 8.62299681e-01 7.46580422e-01 6.93855166e-01 0. 6.86852455e-01 9.38122213e-01 9.55463588e-01 9.31563079e-01 0. 0. 0. 0. 0. 9.32566881e-01 9.29066956e-01 9.21723962e-01 9.23472881e-01 9.18739796e-01 9.15191233e-01 9.11931813e-01 9.14123535e-01 8.94962490e-01 8.94375801e-01 0. 0. 0. 0. 0. 0. 0. 0. 0. 0. 0. 0. 0. 0. 0. 0. 0.
    0. 0. 9.64350700e-01 9.64813769e-01 9.66993093e-01 9.66329753e-01 9.79380429e-01 1.05179965e+00 1.04763436e+00 1.03622854e+00 1.03375220e+00 1.03930175e+00 1.03077853e+00 1.02838767e+00 0. 0. 0. 0. 0. 0. 0. 0. 0. 0. 0. 0. 8.57788503e-01 8.51372480e-01 8.54251862e-01 8.52830172e-01 8.67234528e-01 8.86010110e-01 8.86267543e-01 8.85106623e-01 8.83309186e-01 9.01195526e-01 8.98522019e-01 9.23950016e-01 8.95901382e-01 8.92410994e-01 9.03859437e-01 0. 0. 0. 0. 0. 0. 0. 7.96355009e-01 8.04743230e-01 7.97592640e-01 7.93565035e-01 7.91842699e-01 7.99313664e-01 8.14115763e-01 8.14176679e-01 8.17887366e-01 8.29962134e-01 8.11791837e-01 8.13166857e-01 8.21289778e-01 7.92686939e-01 8.41544807e-01 8.43613982e-01 8.35270822e-01 7.79253066e-01 8.37018013e-01 8.49252760e-01 8.51891220e-01 8.48109961e-01 8.50292325e-01 8.59101772e-01 8.80502701e-01 8.74183476e-01 8.70936096e-01 8.70065272e-01 8.82466853e-01 8.98001373e-01 8.95926476e-01 9.07514572e-01 8.30192327e-01 8.99704456e-01 8.79645109e-01 9.15365577e-01 8.91260982e-01 8.96729708e-01 8.97852600e-01 8.47142994e-01 9.37987745e-01 9.22482550e-01 9.14576709e-01 9.17676926e-01 8.72690678e-01 8.76720130e-01 8.67471576e-01 8.14433575e-01 8.98366511e-01 9.31264818e-01 8.04525018e-01 8.38159919e-01 7.82452643e-01 8.31158459e-01 8.10941458e-01 8.27684641e-01 7.78911054e-01 8.18031490e-01 7.49953449e-01 8.23627949e-01 7.38524020e-01 7.38894522e-01 7.43308544e-01 0. 0. 0. 0. 0. 0. 0. 0. 0. 0. 0. 0. 0. 0. 0. 0. 0. 0. 0. 0. 0. 0. 0. 0. 0. 0. 0. 0. 0. 0. 0. 0. 0. 0. 0. 7.25439906e-01 7.25234151e-01 7.24867344e-01 7.54336715e-01 7.58862138e-01 7.59447038e-01 7.60457575e-01 7.61860967e-01 7.61419237e-01 7.74114430e-01 7.74179697e-01 7.81453550e-01 7.95380592e-01 7.88819909e-01 8.27978373e-01 8.24835241e-01 8.47277641e-01 8.51379633e-01 8.46831322e-01 9.35719073e-01 8.77509594e-01 8.48048985e-01 8.37065876e-01 8.66985023e-01 8.48886728e-01 8.51903439e-01 8.35266709e-01 8.28598678e-01 8.09925497e-01 8.32902908e-01 8.36551189e-01 8.35005343e-01 8.29643488e-01 8.44044685e-01 8.53016496e-01 8.95703852e-01 9.34317827e-01 8.86848330e-01 8.95912528e-01 8.97184610e-01 9.65065718e-01 9.09001946e-01 9.03491318e-01 9.43249464e-01 8.99802923e-01 9.24953818e-01 9.51634765e-01 9.51356411e-01 9.54074800e-01 1.00331032e+00 9.84838128e-01 0. 9.05927837e-01 8.91722679e-01 8.99661362e-01 9.23226714e-01 8.81678164e-01 9.16511476e-01 9.55561101e-01 0. 9.53217030e-01 9.20042515e-01 9.36679244e-01 0. 8.97024393e-01 8.72823775e-01 8.96960020e-01 0. 0. 9.04678106e-01 9.05081928e-01 9.88992512e-01 9.70238805e-01 0. 0. 0. 0. 0. 0. 9.58908677e-01 9.68879938e-01 9.49008942e-01 0. 0. 0. 0. 0. 0. 0. 0. 0. 0. 8.82094741e-01 0. 0. 0. 0. 0. 0. 0. 0. 0. 0. 0. 0. 0. 0. 0. 0. 0. 0. 0. 0. 0. 0. 0. 0. 0. 0. 0. 0. 0. 0. 0. 0. 0. 9.73391712e-01 9.68886197e-01 9.68220115e-01 0. 0. 0. 0. 0. 0. 0. 0. 0. 0. 0. 0. 0. 0. 1.15911031e+00 1.20827901e+00 1.20799613e+00 1.19103718e+00 1.19349241e+00 1.17576897e+00 9.65974748e-01 9.15858686e-01 9.04962838e-01 9.07823741e-01 9.25690353e-01 8.71288955e-01 8.69727254e-01 8.78802180e-01 9.19760346e-01 9.22198117e-01 9.28220809e-01 9.17730451e-01 9.09993529e-01 9.15009439e-01 9.50614810e-01 1.03527772e+00 1.07023728e+00 1.07302177e+00 8.91334176e-01 8.77691448e-01 8.22189808e-01 8.14947069e-01 8.11439514e-01 0. 7.77745843e-01 8.22771966e-01 8.55585814e-01 9.39101398e-01 8.70202780e-01 8.57305288e-01 8.43944609e-01 8.27822626e-01 0. 0. 0. 0. 0. 0. 0. 0. 0. 0. 9.56267595e-01 9.60633576e-01 9.77196217e-01 9.95669961e-01 9.82685685e-01 9.79992807e-01 0. 9.53104496e-01 9.59935546e-01 9.49546397e-01 9.45858061e-01 0. 0. 0. 0. 0. 0. 0. 0. 0. 0. 0. 0. 0. 0. 0. 0. 0. 0. 0. 0. 0. 0. 0. 0. 0. 0. 0. 0. 0. 0. 0. 0. 0. 0. 0. 0. 0. 0. 0. 0. 8.09532046e-01 8.09469283e-01 0. 0. 7.63442457e-01 7.57233679e-01 7.45839596e-01 7.52867937e-01 7.50074565e-01 7.47361362e-01 7.31892467e-01 7.32974827e-01 0. 0. 0. 0. 0. 0. 0. 0. 0. 0. 0. 0. 0. 0. 0. 0. 0. 0. 0. 0. 0. 0. 1.18367827e+00 1.20236862e+00 1.26246595e+00 1.33931315e+00 1.13883042e+00 1.19521308e+00 0. 0. 7.87878752e-01 7.81539321e-01 7.78011084e-01 7.73813486e-01 7.71974981e-01 7.71810234e-01 7.66322911e-01 7.67539501e-01 8.08407545e-01 8.65151465e-01 8.34311068e-01 8.64188015e-01 8.41671884e-01 8.20480049e-01 7.45530248e-01 8.67493629e-01 8.22463334e-01 7.86208987e-01 7.38569856e-01 7.41283774e-01 7.63840318e-01 6.86438680e-01 6.95234656e-01 6.96430206e-01 6.91527724e-01 9.34827685e-01 9.40215766e-01 9.37349617e-01 9.25803959e-01 0. 0. 0. 0. 0. 9.25703883e-01 9.32974637e-01 9.26312149e-01 9.28360999e-01 9.27213788e-01 9.25207853e-01 9.19935048e-01 9.08339679e-01 0. 0. 0. 0. 0. 0. 0. 0. 0. 0. 0. 0. 0. 0. 0. 0. 0. 0. 0.</data></Depth>
</opencv_storage>
