<?xml version="1.0"?>
<opencv_storage>
<Depth type_id="opencv-matrix">
  <rows>19</rows>
  <cols>511</cols>
  <dt>f</dt>
  <data>
    0. 0. 0. 0. 0. 0. 0. 0. 0. 0. 0. 0. 0. 0. 0. 0. 0. 8.55854154e-01 8.46037626e-01 8.49865258e-01 0. 0. 0. 0. 8.37869585e-01 8.44784498e-01 8.45651746e-01 8.39849472e-01 8.48153234e-01 8.80785406e-01 8.97166491e-01 8.99492562e-01 0. 0. 8.49953651e-01 8.03586423e-01 8.13275397e-01 8.10426056e-01 8.13077688e-01 8.25891018e-01 8.55064690e-01 9.02140081e-01 8.96176100e-01 8.91797721e-01 8.56683791e-01 8.68520439e-01 8.60526562e-01 8.53495419e-01 8.55228662e-01 8.61951470e-01 8.63312960e-01 8.57849836e-01 8.73007417e-01 8.64977479e-01 8.63812208e-01 8.64905953e-01 8.71303082e-01 8.89057517e-01 9.10373747e-01 9.25490320e-01 9.92023468e-01 1.01495063e+00 9.98699784e-01 1.01355720e+00 9.90724266e-01 9.35950577e-01 8.90098870e-01 8.81357133e-01 9.48219657e-01 8.86972189e-01 9.05138850e-01 9.12912130e-01 8.99830937e-01 9.77697790e-01 9.03658330e-01 9.25486028e-01 9.20914888e-01 9.20428336e-01 9.44861293e-01 9.42851365e-01 9.48061645e-01 9.51795757e-01 9.66844857e-01 9.77646172e-01 9.60276186e-01 9.43340063e-01 9.47958708e-01 9.59436417e-01 9.60531414e-01 9.60182548e-01 9.74429131e-01 1.01481128e+00 9.96032178e-01 9.78717923e-01 9.80070174e-01 9.99391556e-01 1.03268456e+00 1.01281691e+00 9.71262515e-01 9.65977550e-01 9.85970557e-01 9.99110401e-01 0. 0. 9.86791730e-01 1.01156735e+00 1.01864707e+00 9.97581363e-01 9.57936823e-01 9.61719155e-01 9.57643330e-01 9.52781796e-01 1.08818150e+00 1.06471658e+00 1.09620440e+00 1.13936996e+00 1.15056491e+00 1.13361561e+00 1.63241541e+00 2.07823682e+00 0. 2.40830207e+00 7.49598145e-01 7.33972967e-01 7.29954779e-01 7.25612223e-01 7.21785188e-01 7.30340660e-01 7.25975037e-01 7.31920540e-01 7.31513202e-01 7.35713720e-01 7.26282120e-01 7.05588639e-01 7.11437762e-01 6.94461882e-01 6.98931456e-01 7.05089808e-01 7.11975574e-01 7.01275647e-01 6.96927428e-01 6.95951879e-01 6.91080272e-01 7.02055275e-01 0. 0. 0. 0. 0. 0. 0. 0. 0. 0. 0. 7.16542363e-01 7.13233352e-01 7.19045103e-01 7.24115252e-01 7.46371210e-01 7.17593312e-01 7.44883299e-01 7.44361579e-01 7.49506295e-01 7.56806970e-01 7.47379839e-01 7.46285021e-01 7.53321409e-01 8.02686095e-01 0. 0. 2.77110195e+00 0. 0. 8.46249580e-01 8.33847940e-01 8.14859927e-01 8.10360551e-01 8.28023553e-01 8.30814600e-01 8.73854578e-01 8.83828282e-01 8.96485448e-01 9.28912222e-01 9.29169655e-01 9.20947433e-01 9.14578080e-01 9.09076095e-01 9.05255497e-01 8.94307792e-01 8.99195731e-01 1.03126800e+00 1.01693177e+00 1.00561678e+00 1.00379133e+00 1.00265157e+00 9.80858505e-01 9.56049502e-01 9.47544098e-01 9.26505208e-01 9.30402339e-01 9.66009796e-01 9.49369490e-01 9.71362531e-01 9.95404243e-01 9.70492125e-01 9.71913517e-01 9.79319751e-01 9.94698167e-01 0. 1.00715065e+00 1.02451539e+00 0. 0. 0. 0. 0. 0. 0. 0. 9.43963706e-01 9.41059828e-01 8.91123056e-01 8.86857688e-01 8.85286927e-01 8.84793878e-01 8.82536292e-01 8.80932391e-01 9.03425753e-01 9.09453988e-01 0. 0. 0. 1.13336313e+00 1.14403069e+00 1.15181875e+00 1.12922120e+00 0. 0. 0. 0. 0. 0. 0. 0. 0. 0. 0. 0. 0. 0. 0. 0. 0. 0. 0. 0. 0. 0. 0. 0. 0. 0. 0. 0. 0. 0. 0. 0. 0. 0. 0. 0. 0. 0. 0. 0. 0. 0. 0. 0. 0. 0. 0. 0. 0. 0. 0. 0. 0. 0. 0. 0. 0. 0. 0. 0. 0. 0. 0. 0. 9.08416510e-01 9.11503434e-01 9.19483483e-01 9.19575453e-01 9.27717566e-01 0. 0. 0. 0. 9.51259553e-01 9.78299022e-01 9.01141107e-01 9.10707235e-01 9.15125847e-01 9.22514915e-01 0. 0. 0. 0. 0. 0. 0. 0. 0. 0. 0. 0. 0. 0. 0. 0. 0. 0. 0. 0. 0. 0. 0. 9.55792964e-01 9.53782618e-01 9.60394740e-01 9.64068174e-01 9.64092433e-01 9.76344705e-01 0. 9.74172831e-01 9.62046504e-01 9.80979383e-01 9.92255569e-01 0. 0. 0. 0. 0. 0. 0. 0. 1.08992922e+00 1.07966590e+00 1.08295608e+00 1.07365990e+00 1.07463658e+00 1.06869411e+00 1.06172407e+00 0. 0. 0. 0. 0. 0. 0. 0. 0. 0. 1.01663184e+00 1.02184772e+00 1.02586496e+00 1.02093589e+00 0. 0. 9.30565119e-01 9.31360006e-01 9.35600400e-01 9.40930784e-01 0. 9.45405662e-01 0. 0. 0. 0. 0. 0. 0. 0. 0. 0. 0. 0. 0. 0. 0. 0. 0. 0. 0. 0. 0. 0. 0. 0. 0. 0. 0. 0. 0. 0. 7.56694913e-01 8.02377701e-01 7.81558275e-01 7.69431293e-01 0. 7.86824942e-01 8.01172137e-01 7.88256347e-01 7.76218176e-01 7.90312529e-01 0. 0. 0. 0. 0. 0. 0. 0. 0. 0. 0. 0. 0. 0. 0. 0. 0. 0. 0. 0. 0. 0. 0. 0. 0. 0. 0. 0. 9.34884071e-01 9.43830609e-01 9.40511882e-01 9.42699313e-01 9.47077811e-01 9.47673202e-01 9.46935475e-01 9.50475514e-01 9.50005531e-01 9.47037935e-01 9.47422743e-01 0. 0. 0. 0. 0. 0. 0. 0. 9.40573692e-01 9.52511728e-01 9.45203662e-01 0. 0. 0. 0. 0. 0. 0. 0. 0. 0. 0. 0. 0. 0. 0. 0. 0. 0. 0. 0. 0. 1.17383969e+00 0. 1.03253877e+00 9.50906157e-01 9.27840650e-01 9.51176047e-01 9.67395425e-01 9.72173810e-01 9.71823335e-01 9.67349350e-01 9.70139265e-01 9.51746285e-01 9.44991171e-01
    0. 0. 0. 0. 0. 0. 0. 0. 0. 0. 0. 0. 0. 0. 0. 0. 0. 8.57311428e-01 8.51614833e-01 8.58694494e-01 0. 0. 0. 0. 0. 0. 0. 8.81277323e-01 9.34460580e-01 9.24428284e-01 9.33340967e-01 9.21006382e-01 0. 0. 0. 8.25592756e-01 8.27766478e-01 7.99562037e-01 8.13754439e-01 8.25946450e-01 8.34384501e-01 8.44863474e-01 8.48411262e-01 8.55451941e-01 8.55465114e-01 8.69507432e-01 8.65755200e-01 8.47091973e-01 8.43893111e-01 8.55518162e-01 8.71534169e-01 0. 8.74547064e-01 8.70938540e-01 8.69221032e-01 8.66591036e-01 8.68065894e-01 8.83254468e-01 9.05879200e-01 0. 0. 0. 0. 9.85392272e-01 9.44109976e-01 9.06070471e-01 8.67843449e-01 8.95893455e-01 8.97273660e-01 8.48728776e-01 8.97955120e-01 8.94542217e-01 8.94134760e-01 9.00818348e-01 8.87038589e-01 8.37115943e-01 8.91786337e-01 8.81613851e-01 9.27293837e-01 9.37513769e-01 9.43518221e-01 9.48709071e-01 9.56899762e-01 9.62857842e-01 9.54675436e-01 9.44814146e-01 9.46841955e-01 9.63534117e-01 9.59592700e-01 9.70393658e-01 9.80067432e-01 1.02365792e+00 9.89242494e-01 9.78448987e-01 9.80617464e-01 1.01471162e+00 1.04655445e+00 1.02431071e+00 9.70637321e-01 9.70525742e-01 9.62800264e-01 9.76685166e-01 9.96190190e-01 9.79166329e-01 0. 0. 0. 0. 0. 0. 0. 0. 9.56164062e-01 1.01718640e+00 1.04076290e+00 1.07643795e+00 1.10487008e+00 0. 0. 0. 0. 2.31495452e+00 7.66015291e-01 7.40768731e-01 7.46108413e-01 7.18220472e-01 7.39116788e-01 7.36297011e-01 7.37183392e-01 7.43077517e-01 7.30730832e-01 7.35135734e-01 7.31545091e-01 7.02486336e-01 7.00808227e-01 6.97728574e-01 0. 6.90450788e-01 7.08964765e-01 7.01463163e-01 0. 0. 7.07686663e-01 7.06731200e-01 6.93746984e-01 0. 7.01319039e-01 0. 0. 0. 0. 0. 0. 0. 0. 7.16707468e-01 7.21854806e-01 7.18972385e-01 7.21730292e-01 7.22441316e-01 7.52487719e-01 7.40639091e-01 7.43481100e-01 7.40497708e-01 7.44031131e-01 7.46387482e-01 7.43413448e-01 7.42706597e-01 7.75646806e-01 0. 7.75268602e+00 9.11217511e-01 0. 0. 8.11048985e-01 7.98318565e-01 7.98795402e-01 7.98894823e-01 7.89011776e-01 8.08121026e-01 8.84499907e-01 8.91430676e-01 9.02176261e-01 9.02747929e-01 9.36979711e-01 0. 9.27650809e-01 9.28064585e-01 9.15706336e-01 9.06113923e-01 9.62000728e-01 1.03240466e+00 1.01233637e+00 1.00895703e+00 1.01495731e+00 9.99318480e-01 0. 9.89332795e-01 9.12635028e-01 8.99253130e-01 9.30875838e-01 9.39279020e-01 9.41344380e-01 9.61251557e-01 9.66538072e-01 9.96096790e-01 9.95637953e-01 9.67379391e-01 9.91090536e-01 9.58043218e-01 1.02157199e+00 0. 0. 0. 0. 0. 0. 0. 9.94904995e-01 0. 9.79121506e-01 9.47843790e-01 9.21382666e-01 8.97700965e-01 8.94750774e-01 8.96398187e-01 9.88744497e-01 9.02777553e-01 9.12722409e-01 9.29918826e-01 9.68319833e-01 9.83618915e-01 1.06559670e+00 1.13645852e+00 1.15483999e+00 1.17179954e+00 1.11831605e+00 0. 0. 0. 0. 0. 0. 0. 0. 0. 0. 0. 0. 0. 0. 0. 0. 0. 0. 0. 0. 0. 0. 0. 0. 0. 0. 0. 0. 0. 0. 0. 0. 0. 0. 0. 0. 0. 0. 0. 0. 0. 0. 0. 0. 0. 0. 0. 0. 0. 0. 0. 0. 0. 0. 0. 0. 0. 0. 0. 0. 0. 0. 0. 9.13861394e-01 9.18431699e-01 9.21853900e-01 9.28077221e-01 9.32421267e-01 9.26649451e-01 0. 0. 0. 0. 0. 9.10569608e-01 9.07758951e-01 8.97210598e-01 0. 0. 0. 0. 0. 0. 0. 0. 8.91946316e-01 0. 0. 0. 0. 0. 0. 0. 0. 0. 0. 0. 0. 0. 0. 0. 0. 0. 9.58434761e-01 9.63276088e-01 9.65148687e-01 9.67330158e-01 9.66046393e-01 0. 9.70545709e-01 9.79313016e-01 9.83014822e-01 9.89396513e-01 9.88702655e-01 9.82543111e-01 0. 0. 0. 0. 0. 0. 1.08303642e+00 1.08165503e+00 1.08098161e+00 1.09672713e+00 1.07782733e+00 1.07377613e+00 1.08240104e+00 0. 0. 0. 0. 0. 0. 0. 0. 0. 0. 1.01042104e+00 1.03623211e+00 9.95443106e-01 1.02847493e+00 0. 0. 9.24890995e-01 0. 9.39607799e-01 0. 0. 0. 0. 0. 0. 0. 0. 0. 0. 0. 0. 0. 0. 0. 0. 0. 0. 0. 0. 0. 0. 0. 0. 0. 0. 0. 0. 0. 0. 0. 0. 7.76349545e-01 7.59645939e-01 7.85689414e-01 7.80311882e-01 7.27826536e-01 0. 7.76325822e-01 8.00842762e-01 7.91110694e-01 8.10035288e-01 7.76016653e-01 0. 0. 0. 0. 0. 0. 0. 0. 0. 0. 0. 0. 0. 0. 0. 0. 0. 0. 0. 0. 0. 0. 0. 0. 0. 0. 0. 0. 0. 9.36381698e-01 9.46433127e-01 9.43873525e-01 9.43395555e-01 9.44216609e-01 9.44964528e-01 9.46780503e-01 9.58063662e-01 9.56106961e-01 9.62858021e-01 0. 0. 0. 0. 0. 0. 0. 0. 0. 0. 0. 0. 0. 0. 0. 0. 0. 0. 0. 0. 0. 0. 0. 0. 0. 0. 0. 0. 0. 0. 0. 0. 0. 1.17180586e+00 1.17716634e+00 9.91128683e-01 9.32062685e-01 9.34303343e-01 9.53578055e-01 9.44343150e-01 9.48232949e-01 9.52515066e-01 9.49390352e-01 9.53901410e-01 9.55622256e-01
    0. 0. 0. 0. 0. 0. 0. 0. 0. 0. 0. 0. 0. 0. 0. 0. 0. 8.66156578e-01 8.65894735e-01 8.70905399e-01 0. 8.21229756e-01 8.20735216e-01 8.08802128e-01 0. 0. 0. 8.80493641e-01 9.59782422e-01 9.24299717e-01 9.15601492e-01 9.27856624e-01 0. 0. 8.43238473e-01 8.06084514e-01 8.40453982e-01 8.49392235e-01 8.47995400e-01 8.25518608e-01 8.27313483e-01 8.07971716e-01 7.96662033e-01 8.38421047e-01 8.27174306e-01 8.31597388e-01 8.50375414e-01 0. 8.51007044e-01 8.59673500e-01 8.73757899e-01 8.79711628e-01 8.71543944e-01 8.73163462e-01 8.72264802e-01 8.66409779e-01 8.78899038e-01 0. 0. 0. 0. 0. 0. 0. 8.99159253e-01 8.64394248e-01 9.22714531e-01 0. 8.99237573e-01 8.93057346e-01 9.01693344e-01 8.93692791e-01 8.90373170e-01 8.73730242e-01 8.54044318e-01 8.61519635e-01 8.85588348e-01 9.06626999e-01 9.26786184e-01 9.33562994e-01 9.38820362e-01 9.40308869e-01 9.46716726e-01 9.61630762e-01 9.69072998e-01 9.85277712e-01 9.79677498e-01 9.83669519e-01 9.64342475e-01 9.62840676e-01 9.56208527e-01 9.84357297e-01 9.83490348e-01 9.69128668e-01 1.00536799e+00 1.04099703e+00 1.03699374e+00 1.03602362e+00 1.03854811e+00 1.01329613e+00 9.94244874e-01 1.01025558e+00 1.00996804e+00 9.86578286e-01 1.02475059e+00 1.00226653e+00 1.01458919e+00 0. 0. 0. 0. 1.00214183e+00 9.98176217e-01 1.00897336e+00 9.91192639e-01 1.01498556e+00 1.04063427e+00 0. 0. 0. 0. 8.98717761e-01 8.14185619e-01 7.21367061e-01 9.31140542e-01 7.41058826e-01 7.38828659e-01 7.39945590e-01 0. 0. 0. 0. 0. 0. 0. 0. 0. 6.90791845e-01 6.83163524e-01 6.94216132e-01 0. 0. 6.97571754e-01 7.03500211e-01 6.93101346e-01 0. 0. 0. 0. 0. 0. 0. 0. 6.99010551e-01 0. 7.09663093e-01 7.11669445e-01 7.08009601e-01 7.08770871e-01 7.42242217e-01 7.45885074e-01 7.43967295e-01 7.46276677e-01 7.45136261e-01 7.51584411e-01 7.53176928e-01 7.48470604e-01 7.64109313e-01 7.85961568e-01 8.31994653e-01 8.60861838e-01 9.48098183e+00 6.93485069e+00 7.98283935e-01 7.78339744e-01 7.79160559e-01 7.76347876e-01 7.89841950e-01 7.71571517e-01 8.45530748e-01 8.81232679e-01 8.85806501e-01 8.98604631e-01 9.02202070e-01 9.26640332e-01 9.51551974e-01 9.45503712e-01 9.38207090e-01 9.38122749e-01 9.54600811e-01 1.00756729e+00 1.03058445e+00 1.05175650e+00 9.98335183e-01 1.01830184e+00 1.00202453e+00 1.02267504e+00 9.69183385e-01 9.38168466e-01 9.61791933e-01 9.37391639e-01 9.19036508e-01 9.43641007e-01 9.94708896e-01 9.65015888e-01 9.54336166e-01 1.00536549e+00 9.53082144e-01 1.03324139e+00 1.02526248e+00 1.09905863e+00 1.03775632e+00 0. 0. 1.14115798e+00 1.16039801e+00 1.08545709e+00 1.04235220e+00 1.01395845e+00 1.01796448e+00 9.98212576e-01 9.69365060e-01 9.40505862e-01 9.03646648e-01 9.95146096e-01 8.98414552e-01 9.05770123e-01 9.32957292e-01 9.42816496e-01 9.54216421e-01 9.63496804e-01 9.79805052e-01 1.02197933e+00 1.12531316e+00 1.14929903e+00 1.12605667e+00 0. 0. 0. 0. 0. 0. 0. 0. 0. 0. 0. 0. 0. 0. 0. 0. 0. 0. 0. 0. 0. 0. 0. 0. 0. 0. 0. 0. 0. 0. 0. 0. 0. 0. 0. 0. 0. 0. 0. 0. 0. 0. 0. 0. 0. 0. 0. 0. 0. 0. 0. 0. 0. 0. 0. 0. 0. 0. 0. 0. 0. 0. 0. 0. 9.15284872e-01 9.20098603e-01 9.21955168e-01 9.24971581e-01 9.26241577e-01 9.31144178e-01 9.41814840e-01 0. 0. 0. 0. 0. 9.11371112e-01 8.98977876e-01 8.95934343e-01 0. 0. 0. 0. 0. 0. 0. 8.95351112e-01 0. 8.82803798e-01 0. 0. 0. 0. 0. 0. 0. 0. 0. 0. 0. 0. 0. 0. 0. 9.59852517e-01 9.55141664e-01 9.55051959e-01 9.71907020e-01 9.88110542e-01 0. 9.56922472e-01 1.00063431e+00 9.98499393e-01 1.00562084e+00 1.00286686e+00 9.74046588e-01 9.67112958e-01 0. 0. 0. 1.06434155e+00 0. 1.08626270e+00 1.07548714e+00 1.07838261e+00 1.08490860e+00 1.07311738e+00 1.07906771e+00 1.05687046e+00 0. 0. 0. 0. 0. 0. 0. 0. 0. 0. 1.01370406e+00 1.01008308e+00 1.03101325e+00 1.03312564e+00 1.00811052e+00 0. 9.34441566e-01 9.36706305e-01 9.37489033e-01 0. 0. 0. 0. 0. 0. 0. 0. 0. 0. 0. 0. 0. 0. 0. 0. 0. 0. 0. 0. 0. 0. 0. 0. 0. 0. 0. 0. 0. 0. 0. 7.59429336e-01 7.59389400e-01 7.77745962e-01 7.84138978e-01 7.83765256e-01 7.29018092e-01 7.37283289e-01 7.60042012e-01 7.70006716e-01 7.75277853e-01 8.08194101e-01 7.96792448e-01 7.94098437e-01 0. 0. 0. 0. 0. 0. 0. 0. 0. 0. 0. 0. 0. 0. 0. 0. 0. 0. 0. 0. 0. 0. 0. 0. 0. 0. 0. 9.24594343e-01 9.28986013e-01 9.37626421e-01 9.43743765e-01 9.43026900e-01 9.44142640e-01 9.44413364e-01 9.50238645e-01 9.54089344e-01 9.64237273e-01 9.67118204e-01 9.61688876e-01 0. 0. 0. 0. 0. 0. 0. 9.19188321e-01 9.25056636e-01 9.30636048e-01 0. 0. 0. 0. 0. 0. 0. 0. 0. 0. 0. 0. 0. 0. 0. 0. 0. 0. 0. 0. 0. 0. 0. 0. 0. 0. 0. 9.38411236e-01 9.59471464e-01 9.55627263e-01 9.64307368e-01 9.56449926e-01 9.42482948e-01 0.
    0. 0. 0. 0. 0. 0. 0. 0. 0. 0. 0. 0. 0. 0. 0. 0. 0. 0. 0. 0. 0. 8.50463271e-01 8.28117549e-01 8.38365972e-01 0. 0. 0. 0. 9.16035414e-01 9.09348190e-01 8.93305719e-01 8.75483215e-01 0. 0. 8.41730535e-01 8.28261137e-01 8.27216744e-01 8.32518697e-01 8.33907127e-01 8.29123497e-01 8.27650547e-01 8.25770020e-01 8.35584581e-01 8.49873543e-01 0. 0. 0. 0. 0. 0. 0. 8.78798127e-01 8.78410161e-01 8.76971424e-01 8.69808078e-01 8.63144875e-01 9.16371047e-01 0. 0. 0. 0. 0. 0. 0. 0. 8.92685056e-01 9.16584313e-01 9.15608883e-01 8.99061680e-01 8.94296467e-01 8.95733893e-01 8.92600179e-01 8.91155243e-01 8.84863794e-01 8.94673288e-01 8.72183323e-01 8.90427411e-01 9.12769496e-01 9.46014643e-01 9.34200048e-01 9.29147363e-01 9.30238903e-01 9.35965955e-01 9.54861939e-01 9.77022529e-01 1.00702834e+00 1.02045107e+00 1.02886200e+00 9.98893917e-01 1.02500284e+00 1.00097895e+00 9.64106500e-01 9.53438997e-01 1.02924120e+00 1.03692007e+00 1.05244005e+00 1.01208556e+00 9.93986845e-01 0. 1.01710665e+00 9.99615431e-01 9.94512439e-01 1.02155268e+00 1.00607145e+00 9.95797753e-01 1.02973104e+00 1.04196239e+00 0. 0. 0. 0. 9.84485149e-01 1.01757205e+00 9.98186767e-01 9.87780094e-01 9.84701931e-01 9.91284907e-01 0. 9.66300607e-01 9.53079760e-01 9.83953297e-01 0. 9.35007453e-01 7.28758574e-01 7.85357952e-01 7.41479993e-01 7.36528337e-01 7.85034060e-01 8.20677280e-01 0. 0. 0. 0. 0. 0. 0. 6.89625084e-01 6.88580871e-01 6.82828426e-01 6.83298647e-01 0. 0. 0. 7.04285026e-01 0. 0. 0. 0. 0. 0. 0. 0. 0. 6.96008027e-01 0. 7.00986147e-01 7.06843138e-01 7.08887041e-01 7.21585214e-01 7.37714529e-01 7.41565824e-01 7.44505584e-01 7.45835245e-01 7.48162806e-01 7.56060660e-01 7.60061264e-01 7.63560295e-01 7.77548671e-01 8.02727640e-01 8.46827984e-01 1.01798258e+01 9.40849590e+00 8.07585776e-01 7.86802828e-01 7.42672801e-01 7.66348362e-01 7.64941812e-01 7.80139327e-01 8.08626235e-01 8.49037886e-01 8.88926923e-01 8.90513122e-01 9.00068045e-01 9.03735816e-01 9.31255937e-01 9.65667427e-01 9.65033531e-01 9.42770064e-01 9.62074995e-01 9.44312036e-01 9.88424897e-01 1.03039455e+00 1.01418495e+00 9.97842431e-01 9.91762042e-01 9.90164220e-01 1.02934408e+00 9.95988667e-01 9.38244939e-01 9.19175804e-01 9.27925706e-01 9.38130140e-01 9.47665513e-01 9.37754929e-01 9.51322436e-01 9.64174986e-01 9.64070320e-01 9.67423439e-01 1.00659013e+00 1.06596267e+00 1.04210508e+00 9.93402779e-01 1.01589108e+00 1.09129035e+00 1.16407096e+00 1.18985736e+00 1.09325957e+00 1.05585229e+00 1.04299426e+00 1.01972699e+00 1.00346756e+00 9.83961225e-01 9.68584597e-01 9.53457296e-01 9.56978321e-01 8.97110999e-01 9.84796882e-01 9.72397864e-01 9.77378488e-01 9.51942205e-01 9.61849868e-01 9.63737011e-01 9.59784985e-01 9.62271750e-01 1.03221917e+00 0. 0. 0. 0. 0. 0. 0. 0. 0. 0. 0. 0. 0. 0. 0. 0. 0. 0. 0. 0. 0. 0. 0. 0. 0. 0. 0. 0. 0. 0. 0. 0. 0. 0. 0. 0. 0. 0. 0. 0. 0. 0. 0. 0. 0. 0. 0. 0. 0. 0. 0. 0. 0. 0. 0. 0. 0. 0. 0. 0. 0. 0. 0. 9.22042906e-01 9.19179738e-01 9.18820024e-01 9.13796484e-01 9.20790434e-01 9.22104239e-01 9.22642350e-01 9.24263358e-01 9.32721198e-01 0. 0. 0. 0. 0. 0. 0. 0. 0. 0. 0. 0. 0. 0. 9.08312559e-01 9.00651932e-01 8.83903086e-01 8.83710265e-01 8.93856585e-01 9.01917279e-01 9.21983719e-01 0. 0. 0. 0. 0. 0. 0. 0. 0. 0. 0. 0. 9.55858886e-01 9.57046926e-01 9.52616215e-01 8.66277099e-01 9.80072618e-01 0. 8.71243417e-01 9.98896837e-01 9.57227290e-01 9.67365086e-01 9.62270021e-01 9.72317517e-01 9.42902327e-01 0. 0. 0. 0. 0. 0. 1.07023203e+00 1.08796155e+00 1.08314312e+00 1.07386923e+00 1.07092667e+00 1.07118273e+00 0. 0. 0. 0. 0. 0. 0. 0. 1.00899363e+00 0. 1.01199687e+00 1.01715553e+00 1.01459396e+00 1.02414131e+00 1.03082204e+00 0. 0. 0. 0. 0. 0. 0. 0. 0. 0. 0. 0. 0. 0. 0. 0. 0. 0. 0. 0. 0. 0. 0. 0. 0. 0. 0. 0. 0. 0. 0. 0. 0. 0. 7.59739041e-01 7.57529557e-01 7.60583520e-01 7.44285166e-01 7.66178429e-01 7.92854369e-01 7.82675445e-01 7.49624968e-01 7.48589098e-01 7.54023731e-01 7.84896672e-01 7.85968184e-01 7.83446193e-01 7.98250198e-01 8.03912222e-01 0. 0. 0. 0. 0. 0. 0. 0. 0. 0. 0. 0. 0. 0. 0. 0. 0. 0. 0. 0. 0. 0. 0. 0. 0. 0. 0. 0. 9.37043071e-01 9.41033721e-01 9.41829741e-01 9.41396892e-01 9.45859551e-01 9.47760880e-01 9.51793015e-01 9.58236575e-01 9.59856331e-01 9.63240027e-01 9.62307453e-01 0. 0. 0. 0. 0. 0. 9.16770399e-01 0. 9.13056672e-01 0. 0. 0. 0. 0. 0. 0. 0. 0. 0. 0. 0. 0. 0. 0. 0. 0. 0. 0. 0. 0. 0. 0. 0. 0. 0. 0. 9.58489597e-01 9.63799834e-01 9.64791358e-01 9.63169336e-01 9.61043239e-01 9.60987270e-01 0.
    0. 0. 0. 0. 0. 0. 0. 0. 8.76199961e-01 8.88878524e-01 8.97572458e-01 8.87077749e-01 8.82769108e-01 0. 0. 0. 0. 0. 0. 0. 0. 8.44591200e-01 8.31004083e-01 8.33237469e-01 0. 0. 0. 9.12798464e-01 9.09945071e-01 9.07791376e-01 8.82547319e-01 8.19934905e-01 0. 0. 8.19803298e-01 8.41059148e-01 8.20145071e-01 8.41551661e-01 8.33324671e-01 8.30549061e-01 8.34600329e-01 8.34407151e-01 8.50918472e-01 8.62590492e-01 0. 0. 0. 0. 0. 0. 0. 8.71946990e-01 8.65825355e-01 8.66101325e-01 9.16458130e-01 8.86211991e-01 8.89921963e-01 8.91853273e-01 8.73869121e-01 0. 0. 0. 0. 0. 0. 8.84837687e-01 8.98534954e-01 9.09966588e-01 8.94985735e-01 8.94296169e-01 8.96522462e-01 8.98544729e-01 8.98048222e-01 8.88632655e-01 8.82177651e-01 8.78377616e-01 8.92444611e-01 9.26736772e-01 9.61871803e-01 9.33750689e-01 9.04562831e-01 9.23895717e-01 9.27974999e-01 9.43840683e-01 9.70533669e-01 1.01670134e+00 1.00241816e+00 1.00564861e+00 1.02083445e+00 1.02093625e+00 1.00045884e+00 9.67355967e-01 1.02647054e+00 9.57044721e-01 9.86098289e-01 9.89022732e-01 9.89383399e-01 9.88072932e-01 0. 0. 9.96391237e-01 1.00570321e+00 9.88641143e-01 9.89603877e-01 9.94456887e-01 1.00264764e+00 1.00171971e+00 1.01106036e+00 0. 0. 0. 9.42196906e-01 9.73765612e-01 9.83664930e-01 1.01455927e+00 9.82915878e-01 1.00149024e+00 0. 9.76417303e-01 9.72230196e-01 9.66279745e-01 9.59242165e-01 9.49619830e-01 8.71339440e-01 8.24309051e-01 7.74967432e-01 7.41344035e-01 9.19878960e-01 9.12455618e-01 9.24213588e-01 0. 0. 6.94355667e-01 6.97701037e-01 6.90212727e-01 0. 6.90421164e-01 6.96511865e-01 6.94964170e-01 6.97489083e-01 0. 0. 0. 0. 0. 0. 0. 0. 0. 0. 0. 0. 0. 6.92763269e-01 0. 6.96818888e-01 7.01178789e-01 6.90571487e-01 7.14362979e-01 7.34757125e-01 7.39665329e-01 7.41090059e-01 7.46936321e-01 7.51950741e-01 7.56422997e-01 7.77038574e-01 7.71514714e-01 7.91998267e-01 8.12129080e-01 8.48951161e-01 8.60336602e-01 8.45714867e-01 0. 7.83403099e-01 7.64563262e-01 7.65155137e-01 7.61037171e-01 7.64326155e-01 7.56716311e-01 8.79653335e-01 8.89101744e-01 8.93042862e-01 9.00058210e-01 9.08521891e-01 9.54056442e-01 9.66428280e-01 9.39466178e-01 9.40585732e-01 9.37062800e-01 9.58679318e-01 1.01219296e+00 1.01263392e+00 9.89348531e-01 9.48278606e-01 9.64211345e-01 1.01741135e+00 9.70395803e-01 9.02772129e-01 9.20728385e-01 9.25387084e-01 8.95479441e-01 9.47967947e-01 9.60763872e-01 9.61983979e-01 9.03537571e-01 9.41905022e-01 9.13670897e-01 9.79468286e-01 1.07521021e+00 1.11428285e+00 1.03691173e+00 1.02872705e+00 1.02893710e+00 1.08784556e+00 1.17190754e+00 1.35891080e+00 1.01723528e+00 1.06324363e+00 1.03523815e+00 1.02603376e+00 1.01006687e+00 9.94957507e-01 9.93241847e-01 9.92802560e-01 9.98216093e-01 1.01773393e+00 1.00073421e+00 9.92850065e-01 1.00990307e+00 9.79497075e-01 9.72700715e-01 9.72141623e-01 9.70484972e-01 9.79702771e-01 9.74563062e-01 9.89075184e-01 0. 0. 0. 0. 0. 0. 0. 0. 0. 0. 0. 0. 0. 0. 0. 0. 0. 0. 0. 0. 0. 0. 0. 0. 0. 0. 0. 0. 0. 0. 0. 0. 0. 0. 0. 0. 1.09814811e+00 0. 0. 0. 0. 0. 0. 0. 0. 0. 0. 0. 0. 0. 0. 0. 0. 0. 0. 0. 0. 0. 0. 0. 0. 0. 0. 8.65825176e-01 9.28245962e-01 8.89358461e-01 9.40189779e-01 9.46722388e-01 9.43534136e-01 9.47925925e-01 9.25724208e-01 0. 0. 0. 0. 0. 0. 0. 0. 0. 0. 0. 0. 0. 9.05655146e-01 9.24529076e-01 9.17343199e-01 8.93736780e-01 8.81073833e-01 9.05102253e-01 8.85044992e-01 9.49428260e-01 9.47454095e-01 9.62474465e-01 9.70983744e-01 9.77477133e-01 4.00341463e+00 4.02047873e+00 0. 0. 0. 0. 0. 0. 9.55946147e-01 9.52589810e-01 9.51993763e-01 8.69843483e-01 9.06026065e-01 8.85677159e-01 8.84635389e-01 9.29653466e-01 9.39071774e-01 9.47137773e-01 9.70445454e-01 9.06549811e-01 9.03967261e-01 8.92823875e-01 8.89300883e-01 0. 9.53987837e-01 1.01511538e+00 1.08517146e+00 1.08321929e+00 1.08703840e+00 1.08683002e+00 1.08632040e+00 1.07242155e+00 0. 0. 0. 0. 0. 0. 0. 0. 0. 9.97706890e-01 1.00940895e+00 1.01096940e+00 1.01034045e+00 1.01535523e+00 1.02534413e+00 1.01752269e+00 0. 0. 0. 0. 0. 9.47242796e-01 9.56580818e-01 9.49027717e-01 0. 0. 0. 0. 0. 0. 0. 0. 0. 0. 0. 0. 0. 0. 0. 1.05695343e+00 1.07941377e+00 1.08059621e+00 0. 0. 0. 0. 0. 0. 0. 7.62169957e-01 7.67539144e-01 7.58670270e-01 7.46531963e-01 7.37955987e-01 7.67054617e-01 7.71418452e-01 7.26018727e-01 7.30043054e-01 7.53051043e-01 7.54344642e-01 7.92330623e-01 7.89789379e-01 7.98859954e-01 8.09016824e-01 0. 0. 0. 0. 0. 0. 0. 0. 0. 0. 0. 0. 0. 0. 0. 0. 0. 0. 0. 0. 0. 0. 0. 0. 0. 0. 0. 0. 0. 9.33712006e-01 9.39503014e-01 9.41304147e-01 9.40653503e-01 9.42795217e-01 9.46494341e-01 9.53939795e-01 9.57651317e-01 9.52289224e-01 9.61762726e-01 9.64709103e-01 0. 0. 0. 0. 0. 0. 9.17850673e-01 0. 0. 0. 0. 0. 0. 0. 0. 0. 0. 0. 0. 0. 0. 0. 0. 0. 0. 0. 0. 0. 0. 0. 0. 0. 1.07080221e+00 1.05290222e+00 1.05099607e+00 1.00049818e+00 9.60070491e-01 9.65864301e-01 9.71551180e-01 9.69513059e-01 9.67498183e-01 9.73821759e-01 0.
    0. 0. 0. 0. 0. 0. 0. 0. 8.68459165e-01 8.91847312e-01 8.96324217e-01 8.86851132e-01 8.87039363e-01 0. 0. 0. 0. 0. 0. 0. 8.58705819e-01 8.51866484e-01 8.56236994e-01 8.45707059e-01 0. 0. 0. 0. 0. 8.77471387e-01 8.56831968e-01 8.29121590e-01 0. 0. 8.20432246e-01 8.18562806e-01 8.18841457e-01 8.20389748e-01 0. 0. 8.40019584e-01 8.49106908e-01 8.50172102e-01 0. 8.68252516e-01 0. 0. 0. 0. 8.82617354e-01 8.79276574e-01 8.58187675e-01 8.68455172e-01 8.64539802e-01 8.84921193e-01 8.67847800e-01 8.82240117e-01 8.70407164e-01 8.73071611e-01 0. 0. 0. 0. 0. 0. 8.80475521e-01 8.86317313e-01 8.87546659e-01 8.90857279e-01 8.96082938e-01 8.97214055e-01 8.95768523e-01 8.92408252e-01 8.99615824e-01 8.88713181e-01 8.60354185e-01 8.61108482e-01 9.13276970e-01 9.36358273e-01 9.47281718e-01 9.33003545e-01 9.41008925e-01 9.22689438e-01 9.22787309e-01 9.33938742e-01 9.61639047e-01 9.76225138e-01 1.00077546e+00 1.00167263e+00 1.00308549e+00 9.49459016e-01 0. 0. 9.45368052e-01 9.50511038e-01 9.72667694e-01 9.85041320e-01 9.88881171e-01 0. 9.81193304e-01 9.91264582e-01 9.71261740e-01 9.98642862e-01 1.05193031e+00 9.94352818e-01 1.03756952e+00 1.04626012e+00 1.01937425e+00 1.01308537e+00 0. 9.72250342e-01 9.41671968e-01 9.75681722e-01 9.90944147e-01 9.81079698e-01 1.02397215e+00 9.97371435e-01 0. 9.57423985e-01 9.64411676e-01 9.71170664e-01 9.38992858e-01 9.55889940e-01 9.36566532e-01 9.62441683e-01 7.33126879e-01 7.39355266e-01 9.13890302e-01 8.22005272e-01 9.09205079e-01 0. 0. 6.93490088e-01 6.90024674e-01 6.93365872e-01 7.17313528e-01 6.93142831e-01 7.04073131e-01 6.97270632e-01 8.30994427e-01 8.08985054e-01 0. 0. 9.90064561e-01 0. 0. 0. 0. 0. 0. 0. 0. 0. 0. 6.91269696e-01 6.89752877e-01 6.87692821e-01 0. 7.06005275e-01 6.94762409e-01 7.18244553e-01 7.33287573e-01 7.42489874e-01 7.48121023e-01 7.50273645e-01 7.59883225e-01 7.71536827e-01 7.98600078e-01 8.17792714e-01 8.48695755e-01 8.62518311e-01 8.52646291e-01 8.21681261e-01 7.91656852e-01 7.65586257e-01 7.73065209e-01 7.71392167e-01 7.81807959e-01 7.43209124e-01 8.59987497e-01 8.78850520e-01 8.83073390e-01 8.96764159e-01 9.03546512e-01 9.35856104e-01 9.19979513e-01 9.57163095e-01 9.40901816e-01 9.48751569e-01 9.46076214e-01 8.66805375e-01 9.69748974e-01 9.67949450e-01 9.57111359e-01 9.44446743e-01 9.46456432e-01 9.50235963e-01 9.78168547e-01 9.32190299e-01 9.08515871e-01 9.36182678e-01 1.04305255e+00 9.86038148e-01 1.03926373e+00 9.52897489e-01 9.49750125e-01 9.02123392e-01 9.61762607e-01 9.49122787e-01 1.02190661e+00 1.01148403e+00 1.03604782e+00 1.04930007e+00 1.07947016e+00 1.11316049e+00 1.13596058e+00 1.08839822e+00 1.05906188e+00 1.02758062e+00 1.04272568e+00 1.01609135e+00 9.66707706e-01 9.85479653e-01 1.01156867e+00 1.02101278e+00 1.02223718e+00 1.01538682e+00 1.00738776e+00 9.97544944e-01 1.03070569e+00 9.85926747e-01 1.02691448e+00 9.66096044e-01 9.63460326e-01 9.62895274e-01 9.79856670e-01 0. 0. 0. 0. 0. 0. 0. 0. 0. 0. 0. 0. 0. 0. 0. 0. 0. 0. 0. 0. 0. 0. 0. 0. 0. 0. 0. 0. 0. 0. 0. 0. 0. 1.07825208e+00 1.09457099e+00 1.08702064e+00 0. 0. 0. 0. 0. 0. 0. 0. 0. 0. 0. 0. 0. 0. 0. 0. 0. 0. 0. 0. 0. 7.01051414e-01 6.98813260e-01 6.89621687e-01 6.90983295e-01 7.16649294e-01 7.46867061e-01 7.80902147e-01 7.20722854e-01 8.22495818e-01 9.30556774e-01 8.94136012e-01 9.29756105e-01 9.29712772e-01 9.53429163e-01 0. 0. 0. 0. 0. 0. 0. 0. 0. 0. 0. 0. 9.62979615e-01 9.80406165e-01 9.47846353e-01 9.43482995e-01 9.53336179e-01 9.48867798e-01 9.31319594e-01 9.19987798e-01 9.35343564e-01 9.65337455e-01 9.57938850e-01 9.63819087e-01 9.70208824e-01 9.69774008e-01 9.29235578e-01 8.98980498e-01 8.94776523e-01 8.85671735e-01 8.64659011e-01 8.71076405e-01 0. 9.58093107e-01 9.51137245e-01 9.66841042e-01 2.36748457e+00 8.70276034e-01 8.66944492e-01 8.86610985e-01 9.05225813e-01 9.04200196e-01 9.19163704e-01 8.91789079e-01 9.04469788e-01 8.49041224e-01 8.58175159e-01 8.56941044e-01 8.88762951e-01 9.01090980e-01 9.31710422e-01 9.53522205e-01 9.63274419e-01 8.42216790e-01 9.86917496e-01 1.01517129e+00 1.08925784e+00 0. 0. 0. 0. 0. 0. 0. 0. 9.75921094e-01 9.80548918e-01 1.00456333e+00 1.00388217e+00 1.00016403e+00 1.00946534e+00 1.00773513e+00 0. 0. 0. 0. 0. 9.36997414e-01 9.35978055e-01 9.35579002e-01 9.60992157e-01 0. 0. 1.16986787e+00 0. 1.19757509e+00 0. 0. 0. 0. 0. 0. 0. 0. 0. 1.09781134e+00 1.09127426e+00 1.09003305e+00 0. 0. 0. 0. 0. 0. 0. 0. 0. 7.54213870e-01 7.48984039e-01 7.33315051e-01 7.47508287e-01 7.43381262e-01 7.71871686e-01 7.76853859e-01 7.72566617e-01 8.00154209e-01 7.78677523e-01 7.91811585e-01 7.96022773e-01 8.10534537e-01 8.13293874e-01 0. 0. 0. 0. 0. 0. 0. 0. 0. 0. 0. 0. 0. 0. 0. 0. 0. 0. 0. 0. 0. 0. 0. 0. 0. 0. 0. 0. 9.52604353e-01 9.45982456e-01 9.45039392e-01 9.45304632e-01 9.47884798e-01 9.45835888e-01 9.46695268e-01 9.48536813e-01 9.44006085e-01 9.45147693e-01 9.55013692e-01 9.68567848e-01 0. 0. 0. 0. 0. 0. 0. 0. 0. 0. 0. 0. 0. 0. 0. 0. 0. 0. 0. 0. 0. 0. 0. 0. 0. 0. 0. 0. 0. 0. 0. 0. 1.01482069e+00 1.12333941e+00 1.03842807e+00 1.03302491e+00 9.80671346e-01 9.79606092e-01 9.82244670e-01 9.69886124e-01 9.69775200e-01 9.61611807e-01 0.
    0. 0. 0. 0. 8.28569770e-01 0. 8.34765792e-01 8.48271191e-01 8.58576655e-01 8.52694750e-01 8.84767592e-01 9.03126776e-01 8.94200265e-01 0. 0. 0. 0. 0. 0. 0. 8.72854114e-01 8.49213064e-01 8.63947570e-01 8.55812490e-01 0. 0. 0. 0. 0. 0. 0. 8.86854827e-01 8.28670323e-01 8.18940699e-01 8.13269496e-01 8.55035067e-01 8.21427584e-01 8.25724363e-01 8.14536691e-01 0. 0. 0. 0. 8.66984844e-01 8.77656758e-01 8.78089547e-01 8.75876546e-01 0. 0. 0. 8.85664284e-01 8.70628357e-01 8.58916521e-01 8.66368234e-01 8.58034015e-01 8.95689070e-01 8.65356922e-01 8.67322326e-01 8.81445289e-01 0. 0. 0. 0. 0. 8.82589102e-01 8.80208135e-01 8.81222129e-01 8.84136736e-01 8.86872709e-01 8.90084267e-01 8.90385628e-01 8.93726707e-01 8.90980661e-01 8.81580174e-01 8.73085380e-01 0. 0. 0. 0. 9.15326059e-01 9.55151856e-01 8.55556846e-01 9.31732237e-01 8.91871512e-01 8.76697481e-01 8.82112741e-01 9.04659808e-01 9.43622947e-01 9.91071343e-01 9.59868550e-01 9.56867754e-01 0. 0. 0. 9.65899110e-01 9.55564260e-01 9.63029146e-01 9.64574933e-01 9.57863808e-01 9.58070874e-01 1.00738502e+00 9.90214229e-01 9.96370077e-01 9.82311606e-01 1.01073265e+00 1.01753926e+00 1.00116754e+00 1.01458681e+00 1.01785874e+00 1.00743151e+00 9.71812308e-01 9.76228416e-01 9.70145643e-01 9.34751451e-01 1.02003181e+00 1.03901970e+00 1.04834545e+00 1.06535220e+00 1.03008723e+00 9.86546159e-01 9.72545326e-01 9.59457278e-01 9.56151426e-01 9.48477387e-01 8.06562185e-01 7.14182675e-01 7.48101175e-01 7.62139440e-01 7.17329919e-01 6.96480274e-01 0. 7.00010896e-01 6.96290374e-01 6.93139732e-01 6.91254795e-01 6.98475659e-01 7.19649076e-01 7.09146500e-01 7.09454477e-01 8.51220429e-01 9.21246171e-01 9.94251609e-01 9.98402536e-01 9.91415083e-01 0. 0. 0. 0. 0. 0. 0. 0. 0. 0. 6.86629117e-01 6.90061152e-01 6.94626331e-01 0. 7.02723145e-01 6.96939945e-01 7.08259821e-01 7.31363773e-01 7.37464368e-01 7.44310319e-01 7.50177383e-01 7.46604860e-01 7.55193770e-01 7.77208269e-01 8.10310245e-01 8.29972625e-01 0. 8.55826735e-01 8.44116628e-01 8.25436890e-01 8.13499451e-01 8.08215976e-01 8.00067902e-01 8.16429615e-01 7.74286687e-01 8.45663130e-01 8.65007222e-01 8.74099135e-01 8.84416819e-01 8.92067194e-01 9.39814150e-01 9.29424405e-01 9.18673396e-01 9.18566287e-01 9.31844831e-01 9.86461222e-01 9.47623134e-01 1.04859650e+00 9.42493200e-01 9.69039202e-01 8.78996968e-01 8.72097850e-01 9.35008705e-01 9.33090031e-01 9.33017135e-01 9.06140089e-01 9.32873845e-01 9.22047675e-01 9.92835462e-01 1.05012107e+00 9.92723763e-01 9.57502127e-01 9.62175071e-01 9.31933045e-01 9.22970176e-01 1.03569186e+00 1.01975989e+00 1.01402593e+00 1.07163393e+00 1.05817735e+00 1.08378959e+00 1.10954702e+00 1.06059730e+00 1.03600001e+00 1.01589227e+00 1.01728559e+00 9.75787163e-01 9.67297494e-01 1.03043616e+00 1.02777183e+00 1.02678156e+00 1.01777697e+00 1.01867998e+00 1.01534128e+00 1.00402308e+00 9.89816308e-01 9.82772529e-01 9.68809128e-01 9.93322313e-01 9.87228751e-01 9.73405063e-01 9.75578129e-01 0. 0. 0. 0. 0. 0. 0. 0. 0. 0. 0. 0. 0. 0. 0. 0. 0. 0. 0. 0. 0. 0. 0. 0. 0. 0. 0. 0. 0. 0. 0. 0. 0. 1.06704926e+00 1.07008767e+00 1.06377256e+00 1.09166276e+00 0. 0. 0. 0. 0. 0. 0. 0. 0. 0. 0. 0. 0. 0. 0. 0. 0. 0. 0. 7.03596771e-01 6.97136045e-01 6.99602962e-01 6.99096322e-01 7.04534948e-01 7.06840098e-01 7.07222223e-01 7.23497927e-01 7.49398410e-01 7.28691399e-01 7.32727408e-01 8.42134953e-01 9.51132715e-01 0. 0. 0. 0. 0. 0. 0. 0. 0. 0. 0. 0. 0. 0. 0. 9.63515222e-01 9.65537369e-01 9.65243518e-01 9.44070578e-01 9.52824652e-01 9.34247911e-01 9.20472264e-01 9.28119421e-01 9.52425778e-01 9.71316636e-01 9.75443363e-01 9.69919086e-01 4.10509157e+00 4.04158115e+00 9.12464201e-01 9.09522295e-01 9.03965354e-01 8.53526890e-01 8.33705187e-01 8.64101291e-01 0. 2.44101310e+00 2.54232049e+00 8.66846979e-01 8.19439292e-01 8.29394341e-01 8.67665470e-01 8.96227419e-01 9.04818416e-01 9.14288521e-01 9.11612511e-01 9.38552856e-01 8.65779817e-01 8.30387115e-01 8.08753550e-01 9.57018495e-01 9.63037670e-01 9.57352757e-01 8.56817544e-01 8.39705527e-01 8.30800235e-01 8.80876243e-01 8.43497992e-01 9.61261034e-01 9.66443658e-01 0. 0. 0. 0. 0. 0. 0. 9.70746040e-01 0. 9.87912595e-01 1.00239515e+00 9.84545350e-01 1.01392150e+00 1.00966287e+00 0. 0. 0. 0. 0. 9.11161363e-01 9.18888271e-01 1.02775085e+00 9.11554158e-01 1.09493315e+00 1.12427187e+00 1.18409097e+00 1.19456744e+00 1.22149503e+00 0. 0. 0. 0. 0. 0. 0. 1.06495523e+00 1.07761037e+00 1.08346760e+00 1.09983265e+00 1.08846354e+00 1.03006971e+00 0. 0. 0. 0. 0. 0. 0. 0. 0. 0. 7.43990242e-01 7.50361860e-01 7.52456963e-01 7.51523614e-01 7.45576501e-01 7.48379588e-01 7.71090984e-01 7.87478924e-01 7.91185260e-01 7.87046194e-01 8.17384779e-01 0. 0. 0. 0. 0. 0. 0. 0. 0. 0. 0. 0. 0. 0. 0. 0. 0. 0. 0. 0. 0. 0. 0. 0. 0. 0. 0. 0. 0. 9.56171036e-01 9.51063156e-01 9.40734446e-01 9.38525319e-01 9.36413229e-01 9.37189400e-01 9.38711047e-01 9.42275643e-01 9.46982622e-01 9.49821949e-01 9.41278696e-01 0. 0. 0. 0. 0. 0. 0. 0. 0. 0. 0. 0. 0. 0. 0. 0. 0. 0. 0. 0. 0. 0. 0. 0. 0. 0. 0. 0. 0. 0. 0. 0. 0. 1.04001105e+00 1.42832386e+00 1.40241277e+00 9.79605079e-01 9.73929524e-01 9.66455460e-01 9.68903184e-01 9.67640698e-01 9.65026975e-01 9.64753747e-01 9.59162533e-01
    0. 0. 8.62277687e-01 8.55444252e-01 8.26502502e-01 0. 8.36744010e-01 8.45886409e-01 8.49639177e-01 0. 0. 0. 0. 0. 0. 0. 0. 0. 0. 0. 8.82126391e-01 8.52942705e-01 8.16166461e-01 8.41311395e-01 0. 0. 0. 0. 0. 0. 0. 8.25630963e-01 8.18739116e-01 8.22229266e-01 8.18676651e-01 8.15599799e-01 8.16373289e-01 8.13738406e-01 8.22686911e-01 0. 0. 8.52090895e-01 8.59203577e-01 8.56370687e-01 8.99077892e-01 8.73885989e-01 8.70948017e-01 0. 0. 8.96843076e-01 8.88050795e-01 8.62937689e-01 8.63836825e-01 8.62751663e-01 8.65043402e-01 8.66725028e-01 8.60386908e-01 8.68436158e-01 0. 0. 0. 0. 8.78964961e-01 8.64181221e-01 8.81319404e-01 8.79998088e-01 8.84893000e-01 8.95747960e-01 8.89984608e-01 8.94485712e-01 8.88499677e-01 9.02344048e-01 8.86824071e-01 8.80675077e-01 8.78581166e-01 0. 0. 0. 0. 0. 0. 8.82716477e-01 8.42111111e-01 8.61249387e-01 8.44372451e-01 8.52913678e-01 8.48962009e-01 8.89015675e-01 1.00849915e+00 8.99036288e-01 8.90951455e-01 9.02616799e-01 0. 0. 9.36651647e-01 9.63955998e-01 9.87388194e-01 8.98731709e-01 1.00177479e+00 9.66619790e-01 1.00557888e+00 9.73719120e-01 9.95600224e-01 9.91406798e-01 1.02515018e+00 1.01053035e+00 1.03302979e+00 1.01431096e+00 1.01696432e+00 9.88223791e-01 1.01318657e+00 9.66292202e-01 9.39468086e-01 9.23288822e-01 9.79857504e-01 9.77437854e-01 9.88856971e-01 9.68324542e-01 9.47755456e-01 9.50572431e-01 9.02694106e-01 7.35894561e-01 9.60807085e-01 8.03804696e-01 7.24110067e-01 7.15677500e-01 7.16307163e-01 7.20827699e-01 7.16125309e-01 7.23189950e-01 0. 7.16950297e-01 7.08956063e-01 6.93027854e-01 7.08014667e-01 7.12617040e-01 7.06651032e-01 7.13331640e-01 7.10391283e-01 8.42378318e-01 9.97879386e-01 9.86228347e-01 9.96610940e-01 1.01008189e+00 0. 0. 0. 0. 0. 0. 0. 0. 0. 6.91988468e-01 6.85861707e-01 6.88779354e-01 6.92751348e-01 0. 7.02602208e-01 7.02008009e-01 7.05517769e-01 7.13680208e-01 7.35045254e-01 7.46454656e-01 7.51933634e-01 7.52867103e-01 7.57515311e-01 7.98203111e-01 8.21719229e-01 8.18446040e-01 8.30973923e-01 8.45943391e-01 8.56673360e-01 8.52877498e-01 8.65291297e-01 8.50976229e-01 8.20581257e-01 8.17677021e-01 8.10089707e-01 8.76332343e-01 8.80133331e-01 8.86347473e-01 8.91220570e-01 8.97999823e-01 9.08202827e-01 9.01522934e-01 8.91061008e-01 8.83022726e-01 9.11828339e-01 9.66751397e-01 8.84954274e-01 9.74742532e-01 9.65700746e-01 9.42009091e-01 9.33725357e-01 9.24975693e-01 9.77959633e-01 9.37917888e-01 9.66017067e-01 9.04807806e-01 9.08363819e-01 9.16415870e-01 1.05226421e+00 1.03623974e+00 1.00879705e+00 1.01291072e+00 1.01365960e+00 9.90975440e-01 9.99710500e-01 1.02729344e+00 1.08149517e+00 1.08264136e+00 1.07102144e+00 1.12918472e+00 1.06364393e+00 1.10445583e+00 1.02751386e+00 1.01445436e+00 1.00627303e+00 1.01243699e+00 9.61889565e-01 9.96640563e-01 1.01126778e+00 1.02530646e+00 1.02080965e+00 1.01738071e+00 1.01202297e+00 1.02862859e+00 1.00234354e+00 1.02891076e+00 9.77466524e-01 9.62193191e-01 9.54353511e-01 9.56187189e-01 1.00213027e+00 0. 0. 0. 0. 0. 0. 0. 0. 0. 0. 0. 0. 0. 0. 0. 0. 0. 0. 0. 0. 0. 0. 0. 0. 0. 0. 0. 0. 0. 0. 0. 0. 0. 0. 0. 1.07761252e+00 1.09085286e+00 1.08806372e+00 0. 0. 0. 0. 0. 0. 0. 0. 0. 0. 0. 0. 0. 0. 0. 0. 0. 0. 0. 6.97730601e-01 7.26244450e-01 7.00253129e-01 7.19611287e-01 7.06205368e-01 7.03369856e-01 7.06493378e-01 7.11223722e-01 0. 7.33851314e-01 7.29318559e-01 7.91778862e-01 0. 9.23606694e-01 0. 0. 0. 0. 0. 0. 0. 0. 0. 0. 0. 0. 0. 9.37579453e-01 9.65774715e-01 9.59557712e-01 9.64380980e-01 9.78319585e-01 9.35965776e-01 9.23968792e-01 9.18068111e-01 9.31370258e-01 9.38805342e-01 9.28103626e-01 9.52471197e-01 9.57079649e-01 9.58227813e-01 0. 8.63596439e-01 8.17084730e-01 8.50756347e-01 8.23901117e-01 8.40655088e-01 8.25084448e-01 0. 8.83507252e-01 2.50607920e+00 2.50784492e+00 8.55523586e-01 0. 0. 9.10094738e-01 8.96408796e-01 9.02258158e-01 8.99020970e-01 8.82911384e-01 8.43116343e-01 8.39440346e-01 8.36443961e-01 8.15718472e-01 7.99659669e-01 8.08034301e-01 8.03439319e-01 8.39336932e-01 8.17466557e-01 8.29297125e-01 8.56607497e-01 8.98111761e-01 9.29137588e-01 9.39236343e-01 0. 0. 0. 0. 0. 0. 0. 1.04479134e+00 9.81654286e-01 9.88405585e-01 1.00961113e+00 1.01827943e+00 1.00415277e+00 9.89901781e-01 0. 0. 0. 0. 9.31971252e-01 9.12688732e-01 9.58100557e-01 1.02071524e+00 1.11404431e+00 1.14516068e+00 1.16889191e+00 1.17026484e+00 1.26377010e+00 0. 0. 0. 0. 0. 0. 0. 1.08637011e+00 1.06857836e+00 1.09438348e+00 1.10660112e+00 1.10816872e+00 1.06031096e+00 0. 0. 0. 0. 0. 0. 0. 0. 0. 0. 7.44751275e-01 7.35427976e-01 7.30549932e-01 7.38195539e-01 7.40288854e-01 7.45908320e-01 7.72527695e-01 7.96504319e-01 7.90368557e-01 7.92659819e-01 7.87800312e-01 0. 0. 0. 0. 0. 0. 0. 0. 0. 0. 0. 0. 0. 0. 0. 0. 0. 0. 0. 0. 0. 0. 0. 0. 0. 0. 0. 0. 0. 9.50636566e-01 9.44667935e-01 9.43219781e-01 9.41914737e-01 9.42484736e-01 9.43349183e-01 9.42974389e-01 9.49128687e-01 9.54881072e-01 9.12570894e-01 0. 0. 0. 0. 0. 0. 0. 0. 0. 0. 0. 0. 7.02961266e-01 7.04234838e-01 6.94740117e-01 0. 0. 0. 0. 0. 0. 0. 0. 0. 0. 0. 0. 0. 0. 0. 0. 0. 1.04949963e+00 1.05392528e+00 1.02116942e+00 1.18890941e+00 1.44453096e+00 0. 9.92033780e-01 9.65695977e-01 9.59854901e-01 9.61553037e-01 9.61646616e-01 9.61256564e-01 9.56907153e-01
    0. 0. 8.68312657e-01 8.82503510e-01 8.46494079e-01 0. 8.36404800e-01 8.39599967e-01 8.34402978e-01 0. 8.37980807e-01 8.48489881e-01 8.89433742e-01 9.97792006e-01 1.06601238e+00 1.06978059e+00 0. 0. 0. 8.83703887e-01 8.82831573e-01 8.70523930e-01 8.16851854e-01 8.31203640e-01 0. 0. 0. 0. 0. 0. 0. 8.00194263e-01 8.14833641e-01 8.14884007e-01 8.20421159e-01 8.21583152e-01 8.19790721e-01 8.13187659e-01 8.25142980e-01 0. 0. 8.64814639e-01 8.63760054e-01 8.66829336e-01 8.75795186e-01 8.69677901e-01 8.59068930e-01 8.57250631e-01 0. 8.73372853e-01 8.68940830e-01 8.52023304e-01 8.61977935e-01 8.65745306e-01 8.65012288e-01 8.61068368e-01 8.63436103e-01 8.68857861e-01 0. 0. 0. 8.77801836e-01 8.80704403e-01 8.79643559e-01 8.88432026e-01 9.10789967e-01 9.15610552e-01 9.32625651e-01 9.34081614e-01 9.38508332e-01 9.41612244e-01 9.35209215e-01 9.00616229e-01 8.86414349e-01 0. 0. 0. 0. 0. 0. 0. 8.66049051e-01 8.55682671e-01 8.51519406e-01 8.50429952e-01 8.46265256e-01 8.42563272e-01 8.44350576e-01 8.44121814e-01 8.27992260e-01 8.19878876e-01 8.80130351e-01 9.82754886e-01 1.08580053e+00 1.07201195e+00 9.73664999e-01 9.27667201e-01 9.28041637e-01 9.85731900e-01 1.01056206e+00 1.00921500e+00 1.00388730e+00 9.96134281e-01 1.01045907e+00 1.03867006e+00 1.03301573e+00 1.01401424e+00 1.01638424e+00 1.01785004e+00 9.14657056e-01 1.01194394e+00 9.59378958e-01 9.66121078e-01 9.90740657e-01 9.71322000e-01 9.07522082e-01 9.52662408e-01 9.59540069e-01 9.52805817e-01 9.49767828e-01 8.56853187e-01 7.87139714e-01 7.10072100e-01 7.20735431e-01 7.13898301e-01 0. 7.25419104e-01 7.20061898e-01 7.16194212e-01 7.10454226e-01 7.05252826e-01 6.92395091e-01 7.11001277e-01 6.83413088e-01 6.83029354e-01 6.84770346e-01 6.79887235e-01 6.86066449e-01 7.50822544e-01 8.90803576e-01 1.01372004e+00 1.01249027e+00 1.00156724e+00 9.72988665e-01 1.01083469e+00 0. 0. 0. 0. 0. 0. 0. 0. 6.88751817e-01 0. 6.88335776e-01 0. 0. 0. 0. 7.03298450e-01 7.33899474e-01 7.41585433e-01 7.52659678e-01 7.58480847e-01 7.68250704e-01 7.67610013e-01 8.07527006e-01 8.06974888e-01 8.06302845e-01 8.11450183e-01 8.19673955e-01 8.47723842e-01 8.62624645e-01 8.72339368e-01 8.48584831e-01 8.34419668e-01 8.35501611e-01 8.55464160e-01 8.68889093e-01 8.80388916e-01 8.87829304e-01 8.91370535e-01 8.94424915e-01 9.10555899e-01 8.98416162e-01 8.91037464e-01 8.75596344e-01 8.83775890e-01 0. 0. 0. 8.79519105e-01 9.10512805e-01 9.03588831e-01 9.32892144e-01 9.62639570e-01 9.64194834e-01 9.49029863e-01 9.28070486e-01 9.45555568e-01 1.01672316e+00 1.01214683e+00 1.00088799e+00 1.00797915e+00 1.00960088e+00 1.00863266e+00 1.01032186e+00 1.02237415e+00 1.02547824e+00 1.05757654e+00 1.05354428e+00 1.06695652e+00 1.04576576e+00 1.02861333e+00 9.87694383e-01 1.01717377e+00 1.02238321e+00 1.02256262e+00 1.01747644e+00 1.00484443e+00 9.89463925e-01 1.02056313e+00 1.01658905e+00 1.02230597e+00 1.02055776e+00 1.01166415e+00 1.00677049e+00 1.01699257e+00 9.95066047e-01 9.68076587e-01 9.61101592e-01 9.57270563e-01 9.52549815e-01 9.58675265e-01 0. 0. 0. 0. 0. 0. 0. 0. 0. 0. 0. 0. 0. 0. 0. 0. 0. 0. 0. 0. 0. 0. 0. 0. 0. 0. 0. 0. 0. 0. 0. 0. 0. 0. 0. 0. 0. 0. 0. 0. 0. 0. 0. 0. 0. 0. 0. 0. 0. 0. 0. 0. 0. 0. 0. 0. 0. 6.99627519e-01 7.11262941e-01 7.21835196e-01 7.16523170e-01 7.10770130e-01 7.00541198e-01 7.04240024e-01 0. 0. 0. 0. 0. 0. 0. 0. 0. 0. 0. 0. 0. 0. 0. 0. 0. 0. 0. 0. 8.94126952e-01 9.57960606e-01 8.95080566e-01 8.29949796e-01 8.99867237e-01 9.15208995e-01 8.93547773e-01 8.44156504e-01 8.42907846e-01 0. 0. 0. 0. 0. 0. 8.27573299e-01 8.24469090e-01 8.36237192e-01 8.38313997e-01 8.37087989e-01 8.32515359e-01 8.47887158e-01 8.51144612e-01 2.57135987e+00 2.58914995e+00 8.51572037e-01 0. 0. 9.09563541e-01 8.82388949e-01 8.89561176e-01 8.88831437e-01 8.79823089e-01 8.63933802e-01 8.43715549e-01 8.31293344e-01 8.24962556e-01 8.34991217e-01 8.21108222e-01 8.33202422e-01 8.34837615e-01 8.32730472e-01 8.24074268e-01 8.25453281e-01 8.91831696e-01 9.34802055e-01 8.79375458e-01 0. 0. 0. 0. 0. 0. 0. 1.01326585e+00 9.86768067e-01 9.71425593e-01 9.93202269e-01 9.80856657e-01 1.00229323e+00 9.42277670e-01 0. 0. 0. 0. 9.21776652e-01 9.05655921e-01 9.05417860e-01 1.12493634e+00 1.12135065e+00 1.14221418e+00 1.18861067e+00 1.26608253e+00 1.25967121e+00 0. 0. 0. 0. 0. 0. 0. 1.07854819e+00 1.07166648e+00 1.01070213e+00 9.98839915e-01 1.01506352e+00 1.04709876e+00 0. 0. 0. 0. 0. 0. 0. 0. 0. 0. 0. 0. 7.38642573e-01 7.36262858e-01 7.43449211e-01 7.51197040e-01 7.79856741e-01 7.84740984e-01 7.73495972e-01 8.03897083e-01 7.89224327e-01 8.09470832e-01 0. 0. 0. 0. 0. 0. 0. 0. 0. 0. 0. 0. 0. 0. 0. 0. 0. 0. 0. 0. 0. 0. 0. 0. 0. 0. 0. 0. 0. 9.47566152e-01 9.48573709e-01 9.46875453e-01 9.48447227e-01 9.49881852e-01 9.51781154e-01 9.53610241e-01 9.08743560e-01 8.13198984e-01 0. 0. 0. 0. 0. 0. 0. 0. 0. 0. 0. 0. 0. 7.02137887e-01 0. 0. 0. 0. 0. 0. 0. 0. 0. 0. 0. 0. 0. 0. 0. 0. 0. 1.03441358e+00 9.92744803e-01 9.86375868e-01 1.04823959e+00 1.14409947e+00 1.48837495e+00 0. 9.68594670e-01 9.69343245e-01 9.61355925e-01 9.56469655e-01 9.64433491e-01 9.58586633e-01 9.65519905e-01
    0. 0. 8.73837888e-01 8.69367540e-01 8.54991496e-01 8.52073193e-01 8.37549031e-01 8.26135695e-01 8.16347957e-01 8.15274894e-01 8.47064376e-01 7.96362162e-01 8.56106639e-01 9.33826685e-01 1.03510952e+00 8.92018974e-01 8.08257580e-01 0. 0. 8.74735177e-01 8.72928321e-01 8.73816967e-01 8.27584565e-01 8.22012484e-01 0. 8.29369962e-01 8.50095034e-01 8.26611817e-01 8.22421193e-01 0. 0. 0. 8.09293568e-01 8.36883068e-01 8.19000125e-01 8.30101907e-01 8.21958601e-01 8.22416425e-01 8.36244941e-01 0. 0. 8.11363459e-01 8.00947011e-01 8.34259510e-01 8.48257124e-01 8.45901847e-01 8.53719890e-01 8.51567090e-01 8.81112516e-01 8.69301915e-01 8.56774569e-01 8.52954447e-01 8.61011505e-01 8.58427346e-01 8.64613831e-01 8.60513091e-01 8.61452401e-01 8.71256769e-01 0. 0. 0. 8.68555844e-01 8.80713522e-01 9.15147424e-01 9.12583113e-01 9.27348495e-01 9.05555904e-01 8.95591676e-01 9.08410430e-01 8.91023636e-01 0. 0. 0. 0. 0. 0. 0. 0. 0. 0. 0. 8.57684195e-01 8.66391420e-01 8.53005946e-01 8.40010941e-01 0. 0. 8.34694982e-01 8.37379754e-01 8.41722071e-01 8.47376943e-01 8.84675860e-01 9.82986450e-01 1.03736639e+00 1.02362299e+00 9.77264881e-01 9.49675083e-01 9.53204215e-01 9.70766306e-01 9.82691228e-01 1.01318491e+00 9.60029244e-01 9.91844475e-01 1.00178182e+00 9.98760343e-01 9.86022353e-01 1.00330555e+00 9.88379598e-01 9.68287766e-01 9.59551811e-01 9.68690872e-01 9.56661105e-01 9.26055491e-01 9.16134536e-01 9.33324456e-01 9.21536744e-01 9.51072514e-01 9.42351639e-01 9.15080011e-01 8.59694660e-01 9.48843122e-01 7.21583784e-01 7.18163311e-01 7.19264507e-01 7.30175674e-01 0. 7.19913900e-01 7.18047082e-01 7.12876618e-01 7.09184408e-01 7.11133480e-01 7.09078610e-01 6.79093659e-01 7.14161158e-01 6.74141109e-01 6.78855479e-01 6.88971698e-01 6.87357008e-01 7.69843698e-01 1.01567805e+00 9.98894870e-01 1.00318348e+00 9.94881988e-01 9.88184452e-01 0. 0. 0. 0. 0. 0. 0. 0. 0. 0. 0. 0. 0. 0. 0. 0. 7.10234225e-01 7.44863987e-01 7.56011069e-01 7.59225190e-01 7.66755164e-01 7.77225852e-01 7.82964468e-01 8.01645815e-01 8.00587654e-01 8.04751813e-01 8.01866889e-01 8.03606510e-01 8.27884316e-01 8.43309939e-01 8.45720887e-01 8.32965076e-01 8.26834559e-01 8.28391910e-01 8.14458549e-01 8.51103663e-01 8.75882268e-01 8.77914906e-01 8.80996108e-01 8.91768277e-01 9.27381516e-01 0. 1.02481925e+00 8.87250721e-01 9.00736630e-01 9.01764572e-01 9.02796507e-01 8.96263063e-01 8.95001173e-01 9.04003680e-01 8.78483951e-01 8.95404875e-01 9.35727298e-01 9.65946972e-01 9.72925425e-01 9.56866443e-01 1.04096532e+00 9.78978693e-01 9.89519835e-01 9.99185503e-01 9.98356879e-01 1.00848079e+00 1.01792550e+00 1.01888037e+00 1.05639732e+00 1.06066644e+00 1.05633223e+00 1.02200782e+00 9.79261637e-01 1.02365792e+00 9.96034682e-01 9.84806001e-01 1.00710285e+00 1.01602292e+00 1.01635206e+00 1.01536810e+00 1.03857660e+00 9.98781145e-01 1.02650070e+00 9.99839664e-01 1.01551056e+00 1.00213361e+00 1.03012192e+00 9.93480206e-01 9.89603639e-01 9.81983781e-01 9.65296686e-01 9.57587481e-01 9.54614818e-01 9.58539784e-01 9.51692700e-01 0. 0. 0. 0. 0. 0. 0. 0. 0. 0. 1.04234302e+00 1.01127505e+00 1.01921797e+00 0. 0. 0. 0. 0. 0. 0. 0. 0. 0. 0. 0. 0. 0. 0. 0. 0. 0. 0. 0. 0. 0. 0. 0. 0. 0. 0. 0. 0. 0. 0. 0. 0. 0. 0. 0. 0. 0. 0. 0. 0. 0. 0. 7.05299735e-01 7.03452349e-01 7.08925664e-01 6.83388770e-01 7.00206816e-01 6.94498479e-01 7.04659820e-01 0. 0. 0. 0. 0. 0. 0. 0. 0. 0. 0. 0. 0. 0. 0. 0. 0. 0. 0. 8.44210386e-01 8.50055158e-01 8.52391243e-01 8.65947306e-01 8.33904982e-01 8.21590126e-01 8.59913290e-01 8.72724950e-01 8.72064054e-01 8.59775782e-01 8.35791349e-01 8.63813639e-01 8.73710036e-01 8.77419829e-01 8.67360175e-01 8.50618124e-01 8.39654863e-01 8.32544625e-01 8.36161613e-01 8.29924583e-01 8.40158522e-01 8.40961039e-01 8.41650784e-01 8.79430592e-01 8.29963207e-01 8.53113592e-01 8.54339302e-01 8.53849590e-01 0. 8.76881242e-01 9.00225282e-01 8.84654224e-01 8.73465657e-01 8.74419570e-01 8.92790437e-01 8.92681718e-01 8.82520795e-01 8.40621173e-01 8.29442143e-01 8.56941342e-01 8.50942552e-01 8.39270771e-01 8.59740257e-01 8.19657147e-01 8.30914915e-01 8.27347457e-01 1.04128850e+00 1.03768420e+00 1.03055131e+00 0. 0. 0. 0. 0. 0. 0. 0. 0. 0. 8.81890416e-01 9.65042055e-01 8.65301549e-01 8.78505826e-01 0. 0. 0. 0. 9.38709140e-01 9.48627532e-01 1.12322009e+00 1.06474829e+00 0. 0. 0. 0. 0. 0. 0. 0. 0. 0. 0. 0. 0. 1.00903630e+00 1.02197063e+00 1.00101316e+00 0. 0. 0. 0. 0. 0. 0. 0. 0. 0. 0. 0. 0. 0. 7.32497871e-01 7.48734534e-01 7.42532790e-01 7.55900025e-01 7.93026388e-01 7.98490703e-01 8.01001906e-01 7.89521277e-01 7.67997324e-01 7.95763373e-01 0. 0. 0. 0. 0. 0. 0. 0. 0. 0. 0. 0. 0. 0. 0. 0. 0. 0. 0. 0. 0. 0. 0. 0. 0. 0. 0. 0. 0. 9.54102039e-01 9.55100417e-01 9.49727178e-01 9.48061883e-01 9.51678395e-01 9.38431919e-01 9.45426226e-01 8.31201196e-01 8.70399833e-01 8.43924105e-01 0. 0. 0. 0. 0. 0. 0. 0. 0. 0. 7.00708032e-01 6.99009418e-01 7.03402817e-01 0. 0. 0. 0. 0. 0. 0. 0. 0. 0. 0. 0. 0. 0. 0. 0. 0. 1.06119871e+00 9.86530721e-01 9.99833703e-01 9.86237049e-01 1.04436350e+00 9.64765847e-01 0. 0. 9.58208680e-01 9.64320898e-01 9.66140985e-01 9.64857817e-01 9.57538188e-01 9.71995831e-01
    0. 0. 0. 8.76156330e-01 8.60078394e-01 8.53504956e-01 8.32042873e-01 8.11327338e-01 7.96764970e-01 7.73337722e-01 8.03645909e-01 8.00928593e-01 8.20174694e-01 7.94653118e-01 8.00557852e-01 8.19711924e-01 8.07904482e-01 0. 0. 8.17220926e-01 7.99183786e-01 7.96068609e-01 7.99871266e-01 8.07470560e-01 0. 8.27207446e-01 8.21768522e-01 8.12895000e-01 8.25674176e-01 0. 0. 0. 0. 8.21976364e-01 8.27066362e-01 8.24416041e-01 8.25756371e-01 8.28922093e-01 8.31409633e-01 0. 0. 8.04787338e-01 8.10561180e-01 8.06478798e-01 8.34451735e-01 8.35433185e-01 8.31145287e-01 8.36957395e-01 8.51121485e-01 8.60346675e-01 8.62013340e-01 8.65700662e-01 8.57524931e-01 8.69352639e-01 8.64396632e-01 8.58620405e-01 8.65526915e-01 8.61298919e-01 0. 8.70787680e-01 8.68434846e-01 8.76293600e-01 8.79218817e-01 8.94385219e-01 8.81890833e-01 9.16293740e-01 8.98052990e-01 8.98686230e-01 9.02329087e-01 0. 0. 0. 0. 0. 0. 0. 0. 0. 0. 0. 0. 0. 0. 0. 0. 0. 8.31480563e-01 8.50184917e-01 8.49196255e-01 8.53176534e-01 8.48753214e-01 8.95848513e-01 1.07006764e+00 1.06323743e+00 1.03254199e+00 9.84968483e-01 9.54046130e-01 9.59372699e-01 9.74295139e-01 9.62194622e-01 9.78261411e-01 9.77780521e-01 0. 9.98773634e-01 9.99167681e-01 1.00151086e+00 9.96808231e-01 1.00445962e+00 9.25359130e-01 9.26614404e-01 9.57817197e-01 9.52202499e-01 9.39252317e-01 9.18465793e-01 0. 9.27459121e-01 9.30023253e-01 9.29333568e-01 0. 7.90520072e-01 7.22441018e-01 7.25140750e-01 7.21502006e-01 7.22424805e-01 7.21018851e-01 7.29140401e-01 0. 0. 7.04456031e-01 7.04188704e-01 7.07327008e-01 7.05864906e-01 7.17819691e-01 7.02375293e-01 6.85847342e-01 6.98863745e-01 6.94876313e-01 6.99432731e-01 7.04564571e-01 9.97265220e-01 0. 1.00227177e+00 9.95632052e-01 9.92782474e-01 0. 0. 0. 0. 0. 0. 0. 0. 0. 0. 0. 0. 0. 0. 0. 0. 7.06533253e-01 7.08072841e-01 7.55715549e-01 7.67258346e-01 7.67569721e-01 7.71215260e-01 7.76796520e-01 7.87850022e-01 8.19721520e-01 7.93012977e-01 7.74919391e-01 7.76111722e-01 7.89361835e-01 8.03846359e-01 8.04961681e-01 8.02076042e-01 8.04085135e-01 8.14085245e-01 8.33897591e-01 8.54842663e-01 8.59953642e-01 8.55963528e-01 8.95959675e-01 9.10130262e-01 9.27732050e-01 9.30803418e-01 9.04410064e-01 9.23766375e-01 9.04173195e-01 8.86259675e-01 8.78665030e-01 8.84689927e-01 8.74553680e-01 8.81080687e-01 8.86091769e-01 8.96044552e-01 9.12980974e-01 9.32234943e-01 9.44457889e-01 9.44943488e-01 9.13331091e-01 9.73623872e-01 9.73252237e-01 9.52669680e-01 9.88716960e-01 9.46382880e-01 9.75123048e-01 9.24145341e-01 9.69817936e-01 8.86623383e-01 9.84578431e-01 9.94976282e-01 1.00063872e+00 9.88589525e-01 9.79690433e-01 9.76388872e-01 9.77365971e-01 9.88639474e-01 1.00577843e+00 1.01307213e+00 1.00938487e+00 1.01256406e+00 1.02101278e+00 1.02771926e+00 1.02479315e+00 1.01736414e+00 1.01711786e+00 9.88242686e-01 9.81502354e-01 9.82362568e-01 9.68411386e-01 9.59327400e-01 1.00270224e+00 1.00053954e+00 9.51129794e-01 0. 0. 0. 0. 0. 1.02356803e+00 0. 0. 0. 0. 1.01552880e+00 0. 0. 0. 0. 1.03292203e+00 1.03179014e+00 0. 0. 0. 0. 0. 0. 0. 0. 0. 0. 0. 0. 0. 0. 0. 0. 0. 0. 0. 0. 0. 0. 0. 0. 0. 0. 0. 0. 0. 0. 0. 0. 0. 0. 0. 0. 0. 0. 0. 0. 7.10343301e-01 7.02127516e-01 0. 6.91878974e-01 0. 6.85693443e-01 0. 0. 0. 0. 0. 0. 0. 0. 0. 0. 0. 0. 0. 0. 0. 0. 0. 8.13148379e-01 8.33235562e-01 8.46436143e-01 8.44631553e-01 8.28454077e-01 8.41607153e-01 8.22576761e-01 8.33954453e-01 8.37947845e-01 8.53895962e-01 8.52562964e-01 8.46589804e-01 8.86127651e-01 8.57159078e-01 8.81632328e-01 8.57791424e-01 8.43236923e-01 8.26676667e-01 8.34459126e-01 8.34172666e-01 8.29743147e-01 8.23364913e-01 8.20007384e-01 8.16342711e-01 8.21462631e-01 8.45560193e-01 8.86060059e-01 8.52828085e-01 8.49684656e-01 8.46469283e-01 0. 8.75733495e-01 8.72453153e-01 8.67190540e-01 8.69843781e-01 8.84637237e-01 8.57988000e-01 8.79304767e-01 8.43483329e-01 8.28712404e-01 8.15413713e-01 8.15598726e-01 8.20374012e-01 8.65449905e-01 8.20869625e-01 8.33693743e-01 8.51658225e-01 8.33377779e-01 8.78705144e-01 9.39239681e-01 9.71343279e-01 0. 0. 0. 0. 0. 0. 0. 1.00611818e+00 9.89403725e-01 9.83510613e-01 8.80367696e-01 8.72559845e-01 8.71569574e-01 8.73687744e-01 0. 0. 0. 0. 1.09002018e+00 1.09109759e+00 1.08860731e+00 1.07664311e+00 0. 0. 0. 0. 0. 0. 0. 0. 0. 0. 0. 0. 0. 0. 0. 0. 0. 0. 0. 0. 0. 0. 0. 0. 0. 0. 0. 0. 0. 0. 7.38117456e-01 7.27343202e-01 7.40255058e-01 7.32906103e-01 7.70150244e-01 8.05787504e-01 7.96430171e-01 7.92421401e-01 7.85672724e-01 7.82704830e-01 0. 0. 0. 0. 0. 0. 0. 0. 0. 0. 0. 0. 0. 0. 0. 0. 0. 0. 0. 0. 0. 0. 0. 0. 0. 0. 0. 0. 9.52801347e-01 9.60445642e-01 9.56096411e-01 9.48830009e-01 9.35976207e-01 9.47506309e-01 9.33284879e-01 9.32422519e-01 9.25171256e-01 8.47874463e-01 8.47024441e-01 8.84052515e-01 8.94489944e-01 0. 0. 0. 8.96122396e-01 8.94298136e-01 0. 0. 0. 0. 0. 0. 0. 0. 0. 0. 0. 0. 0. 0. 0. 0. 0. 0. 0. 0. 1.26731586e+00 1.26591206e+00 1.27513182e+00 0. 9.99971032e-01 9.82369483e-01 9.64426517e-01 9.48878109e-01 9.39797521e-01 0. 0. 9.50698853e-01 9.49586451e-01 9.58242178e-01 9.50374722e-01 9.47195113e-01 9.46513474e-01
    0. 0. 0. 8.64633441e-01 8.52117956e-01 8.42741609e-01 8.22115481e-01 8.00785780e-01 7.92069852e-01 7.74714351e-01 7.97016323e-01 7.96938181e-01 7.74385393e-01 8.09386253e-01 8.12434196e-01 8.10365796e-01 7.86232054e-01 7.99162149e-01 7.96966791e-01 7.94770420e-01 7.61236429e-01 7.96709239e-01 8.00307512e-01 7.93173015e-01 0. 8.11760485e-01 8.11973751e-01 8.12927663e-01 8.08853567e-01 0. 0. 0. 0. 8.78454506e-01 8.16607177e-01 8.28773201e-01 8.43619585e-01 8.25019777e-01 8.29332829e-01 8.29888880e-01 9.11000848e-01 8.40805650e-01 8.71830821e-01 8.32023084e-01 8.42562616e-01 8.19431841e-01 8.02762091e-01 8.21903288e-01 8.43672693e-01 8.47818494e-01 8.59760642e-01 8.57956409e-01 8.57037246e-01 8.58943701e-01 8.96518290e-01 8.58134389e-01 0. 0. 8.67920697e-01 8.67467642e-01 8.74960780e-01 8.74610066e-01 8.77256274e-01 8.78358483e-01 8.90104771e-01 8.84725571e-01 8.80589366e-01 8.87873530e-01 9.02076721e-01 9.08430874e-01 0. 0. 0. 0. 0. 0. 0. 0. 0. 0. 0. 0. 0. 0. 8.44854593e-01 8.26122403e-01 8.38459194e-01 8.36930275e-01 8.25885653e-01 8.32124412e-01 8.36145103e-01 8.73643816e-01 0. 0. 0. 0. 0. 9.60459352e-01 9.73692834e-01 0. 0. 0. 0. 0. 0. 0. 0. 1.00167406e+00 9.91792858e-01 9.59318578e-01 9.75315452e-01 0. 0. 0. 0. 0. 0. 0. 0. 7.97364771e-01 7.29743242e-01 7.16520071e-01 7.18846262e-01 7.19609261e-01 7.26013184e-01 7.25928664e-01 0. 0. 7.12784946e-01 7.08184063e-01 7.11151719e-01 7.11401522e-01 7.19209075e-01 7.19785511e-01 7.14419186e-01 7.02348292e-01 7.14554012e-01 7.06363320e-01 7.25635290e-01 6.97336972e-01 9.69830155e-01 9.83703554e-01 9.85491395e-01 9.90494370e-01 0. 0. 0. 0. 0. 0. 0. 0. 0. 0. 0. 0. 0. 0. 0. 0. 0. 7.57241309e-01 7.49663532e-01 7.60818481e-01 7.69344926e-01 7.64138043e-01 7.59387136e-01 7.74700403e-01 7.79698133e-01 7.71684170e-01 7.67288566e-01 7.66731024e-01 7.70802617e-01 7.79054284e-01 7.83412516e-01 7.83020914e-01 7.89457023e-01 7.92683601e-01 8.15392792e-01 8.33642364e-01 8.56051087e-01 8.85356188e-01 9.51584995e-01 9.38794851e-01 9.39602435e-01 9.07729685e-01 9.04231966e-01 8.95606995e-01 8.92380059e-01 8.75843585e-01 8.64680529e-01 8.62197816e-01 8.67508471e-01 8.73370945e-01 8.78915429e-01 8.84454548e-01 9.00286376e-01 9.09917355e-01 9.32730019e-01 9.37217057e-01 9.12048876e-01 9.45439219e-01 9.56473470e-01 9.58989501e-01 9.60657001e-01 9.51559603e-01 9.41210687e-01 9.34506953e-01 9.29265320e-01 9.07079339e-01 9.39614534e-01 9.50351715e-01 9.54765499e-01 9.50040102e-01 9.43192840e-01 9.39503491e-01 9.35179234e-01 9.44297373e-01 9.66923177e-01 9.85599399e-01 9.94448066e-01 1.01308215e+00 1.01659977e+00 9.67830479e-01 9.97293770e-01 9.94789124e-01 9.95313525e-01 9.80814576e-01 9.64219093e-01 9.59664822e-01 9.50479269e-01 9.51843560e-01 1.00887346e+00 9.97443795e-01 1.00006294e+00 0. 0. 9.82043743e-01 9.90433097e-01 1.01686215e+00 0. 0. 0. 0. 0. 1.02295744e+00 1.02505040e+00 1.01483524e+00 0. 1.02854848e+00 0. 1.02833986e+00 1.03599298e+00 0. 0. 0. 0. 0. 0. 0. 0. 0. 0. 0. 0. 0. 0. 0. 9.86362517e-01 9.83677864e-01 0. 0. 0. 0. 0. 0. 0. 0. 0. 0. 0. 0. 0. 0. 0. 0. 0. 0. 0. 0. 0. 0. 0. 0. 0. 0. 0. 0. 0. 0. 0. 0. 0. 0. 0. 0. 0. 0. 0. 0. 0. 0. 8.14526558e-01 8.20351601e-01 8.21929634e-01 8.19165826e-01 8.34007204e-01 8.37466002e-01 8.43305707e-01 8.61381948e-01 8.40645730e-01 8.34661365e-01 8.48015547e-01 8.40517640e-01 8.19683909e-01 7.90699601e-01 8.20132911e-01 8.35793376e-01 8.50653410e-01 8.31521630e-01 8.47957850e-01 8.43939006e-01 8.34670484e-01 8.34703624e-01 8.45853150e-01 8.34619999e-01 8.38495612e-01 8.60698283e-01 8.42327654e-01 8.41392219e-01 8.38434041e-01 8.64693522e-01 8.33006203e-01 8.60807776e-01 8.24984312e-01 8.54925036e-01 8.41060102e-01 8.04186821e-01 8.32086444e-01 8.36101890e-01 8.31469119e-01 8.23174894e-01 8.51466358e-01 7.97032595e-01 8.17197561e-01 8.14566672e-01 8.07703257e-01 8.28224480e-01 8.68838668e-01 8.50064218e-01 8.56867731e-01 8.41996372e-01 8.28768909e-01 8.28785479e-01 9.51898456e-01 0. 0. 0. 0. 0. 0. 0. 0. 1.04203331e+00 1.07229412e+00 1.04700387e+00 1.02153480e+00 0. 1.01267636e+00 8.79396021e-01 8.85110199e-01 0. 0. 0. 1.07959545e+00 1.11831391e+00 1.11382139e+00 1.09818566e+00 0. 0. 0. 0. 0. 0. 0. 0. 0. 0. 0. 0. 0. 0. 0. 0. 0. 0. 0. 0. 0. 0. 0. 0. 0. 0. 0. 0. 0. 0. 7.40735948e-01 7.38349497e-01 7.45585382e-01 7.39889324e-01 7.68923104e-01 7.99045801e-01 7.85103202e-01 7.83252537e-01 7.88222194e-01 7.88548172e-01 0. 0. 0. 0. 0. 0. 0. 0. 0. 0. 0. 0. 0. 0. 0. 0. 0. 0. 0. 0. 0. 0. 0. 0. 0. 0. 0. 0. 9.79566157e-01 9.64253724e-01 9.48644817e-01 9.45199847e-01 9.32873785e-01 9.33946013e-01 9.34827566e-01 9.20216203e-01 8.48043501e-01 9.23086464e-01 8.93217921e-01 9.12788749e-01 9.04987991e-01 8.96197081e-01 0. 0. 8.95015955e-01 8.91881466e-01 8.92409384e-01 0. 0. 0. 0. 0. 0. 0. 0. 0. 0. 0. 0. 0. 0. 0. 0. 0. 1.23120642e+00 0. 1.22980344e+00 1.20168757e+00 1.19612014e+00 0. 0. 9.68707621e-01 9.34997857e-01 9.04184341e-01 9.35561538e-01 9.48701024e-01 9.44074690e-01 9.60793257e-01 9.55218971e-01 9.55575645e-01 9.51454699e-01 9.50356305e-01 9.52473462e-01
    0. 0. 0. 0. 0. 0. 0. 7.90590405e-01 7.94093549e-01 7.92197943e-01 7.93486774e-01 7.92919993e-01 8.00105691e-01 0. 8.05552244e-01 7.96885848e-01 8.00593495e-01 7.93315530e-01 7.92148590e-01 7.92393506e-01 7.92264283e-01 7.60457754e-01 7.97249854e-01 7.91913033e-01 0. 0. 7.92761803e-01 7.99040616e-01 8.00144076e-01 7.92336345e-01 7.85720468e-01 8.11467469e-01 8.04912806e-01 7.95116067e-01 7.90882826e-01 8.32745194e-01 8.43947113e-01 8.27101350e-01 8.13578606e-01 8.21238816e-01 8.34532976e-01 9.02569294e-01 8.99875522e-01 8.31380785e-01 8.29936564e-01 8.23439121e-01 8.26658010e-01 8.44607234e-01 8.41233253e-01 8.46634150e-01 8.50930572e-01 8.49009156e-01 8.57887089e-01 8.80929053e-01 8.63483489e-01 8.96886170e-01 0. 0. 8.66061747e-01 8.86353970e-01 8.75580549e-01 8.81000817e-01 8.80533934e-01 8.74832034e-01 8.82402539e-01 8.85721028e-01 8.72450769e-01 8.64208400e-01 9.15815294e-01 9.25980985e-01 0. 0. 0. 0. 0. 0. 0. 0. 0. 0. 0. 0. 0. 0. 9.66936588e-01 8.41218174e-01 8.58211696e-01 8.48246932e-01 8.46805274e-01 8.41389656e-01 8.47223818e-01 8.51676643e-01 0. 0. 0. 0. 0. 0. 9.58389163e-01 9.48200345e-01 0. 0. 0. 0. 0. 0. 0. 0. 0. 0. 0. 0. 0. 0. 0. 0. 9.28044379e-01 0. 0. 0. 0. 0. 0. 7.35279500e-01 7.22866714e-01 7.01446295e-01 0. 0. 7.06135333e-01 7.02073634e-01 6.97911322e-01 7.16826499e-01 6.99051917e-01 6.99461281e-01 7.00387061e-01 7.05390334e-01 7.02813089e-01 7.02653587e-01 7.00633526e-01 7.04547942e-01 7.52172410e-01 8.80562007e-01 0. 0. 0. 0. 0. 0. 0. 0. 0. 0. 0. 0. 0. 0. 0. 0. 0. 0. 0. 0. 7.60170460e-01 7.62013555e-01 7.73802817e-01 7.69907117e-01 7.63813853e-01 7.63282239e-01 7.62060940e-01 7.56399214e-01 7.62105227e-01 7.69796789e-01 7.75137901e-01 7.81625569e-01 7.87688017e-01 7.92074144e-01 7.89557159e-01 8.00817788e-01 8.04941833e-01 8.09528828e-01 8.30188096e-01 8.75500560e-01 9.31926429e-01 9.35125232e-01 7.99703300e-01 8.76309514e-01 8.79815400e-01 8.79057527e-01 8.72657418e-01 8.64635050e-01 8.50251079e-01 8.27898681e-01 8.58560920e-01 8.53211641e-01 8.70696425e-01 8.71704996e-01 9.10379469e-01 8.76696646e-01 9.32895839e-01 9.40159380e-01 9.35482800e-01 9.32054281e-01 9.38641071e-01 9.55839634e-01 9.35550690e-01 9.62149680e-01 9.09114063e-01 8.83712649e-01 8.98743331e-01 9.04704273e-01 9.16185677e-01 9.43912089e-01 9.25191104e-01 9.39775467e-01 9.23867941e-01 9.28225636e-01 9.05521691e-01 9.27076817e-01 9.37077880e-01 9.49353814e-01 1.00818586e+00 9.58687663e-01 9.64655995e-01 1.00298750e+00 9.44080532e-01 9.37912226e-01 9.42676008e-01 9.27924037e-01 9.43106532e-01 9.29188013e-01 9.40791011e-01 9.45551872e-01 9.44787979e-01 1.00006640e+00 1.00362158e+00 9.89306152e-01 0. 9.11467373e-01 1.05549407e+00 1.05150032e+00 1.00917196e+00 9.66420352e-01 0. 0. 0. 0. 0. 0. 0. 1.02949286e+00 1.05781293e+00 1.03188467e+00 9.98978496e-01 1.01261187e+00 1.04181194e+00 1.03864241e+00 0. 0. 0. 0. 0. 0. 0. 0. 0. 0. 0. 9.93567526e-01 9.92754161e-01 9.91183043e-01 9.90731418e-01 0. 0. 0. 1.04120016e+00 1.04071522e+00 1.02868998e+00 0. 0. 0. 0. 0. 0. 0. 0. 0. 0. 0. 0. 0. 0. 0. 0. 0. 0. 0. 0. 0. 0. 6.87075198e-01 6.87051117e-01 7.39942789e-01 7.35172212e-01 7.44113982e-01 7.42510796e-01 7.69590199e-01 7.86044896e-01 7.78014302e-01 7.83091009e-01 8.12667966e-01 8.12020123e-01 8.12037110e-01 8.13036025e-01 8.19752514e-01 8.26231420e-01 8.37947249e-01 8.36140275e-01 8.44173372e-01 8.41914177e-01 8.49719465e-01 8.46796155e-01 8.21681798e-01 8.50782990e-01 8.16969931e-01 7.83005357e-01 7.86548197e-01 8.01414669e-01 8.04507852e-01 8.28866839e-01 8.53161335e-01 8.46880913e-01 8.59006107e-01 8.27690542e-01 8.19037139e-01 8.27391565e-01 8.33280981e-01 8.35516572e-01 8.29607189e-01 8.52280378e-01 8.52551937e-01 0. 8.31142128e-01 8.56476307e-01 8.29940259e-01 8.32749665e-01 8.30474436e-01 8.24563861e-01 8.22491348e-01 8.23438644e-01 8.23574126e-01 8.20991278e-01 8.23752224e-01 8.18978071e-01 8.04623187e-01 8.15807283e-01 8.03273022e-01 8.03533018e-01 8.19481790e-01 0. 8.65245700e-01 8.59314382e-01 8.55990350e-01 8.37976396e-01 8.23223770e-01 8.20595682e-01 0. 0. 0. 0. 0. 0. 0. 0. 1.01717520e+00 1.04163480e+00 1.01963210e+00 1.01825237e+00 1.02661490e+00 1.01841974e+00 1.00190806e+00 1.00138390e+00 9.39798951e-01 0. 0. 0. 1.11299360e+00 1.12465322e+00 1.11036301e+00 0. 0. 0. 0. 0. 0. 0. 0. 0. 0. 0. 0. 0. 0. 0. 0. 0. 0. 0. 0. 0. 0. 0. 0. 0. 0. 0. 0. 0. 0. 7.41196930e-01 7.43610978e-01 7.42511332e-01 7.40319610e-01 7.32651055e-01 7.74818122e-01 7.77506471e-01 7.84877717e-01 7.89450884e-01 7.90640891e-01 0. 0. 0. 0. 0. 0. 0. 0. 0. 0. 0. 0. 0. 0. 0. 0. 0. 0. 0. 0. 0. 0. 0. 0. 0. 0. 0. 0. 9.81750250e-01 9.60375786e-01 9.51025188e-01 9.41868126e-01 9.41841245e-01 9.39264417e-01 9.40658927e-01 9.36528265e-01 9.33891118e-01 9.05960500e-01 8.91549289e-01 9.06652153e-01 9.02140260e-01 8.69157791e-01 8.87251616e-01 9.08501923e-01 8.87655377e-01 8.90464664e-01 8.96609366e-01 0. 0. 0. 0. 0. 0. 0. 0. 0. 0. 0. 0. 0. 0. 0. 0. 0. 1.21208274e+00 0. 1.23098731e+00 1.00998044e+00 9.96413052e-01 9.83807504e-01 9.66146231e-01 9.05930936e-01 9.09276545e-01 9.10490870e-01 9.35211718e-01 9.41859305e-01 9.41535950e-01 9.47130919e-01 9.48121548e-01 9.45365071e-01 9.48706806e-01 9.39701140e-01 9.44113612e-01
    0. 0. 0. 0. 0. 0. 0. 0. 0. 0. 8.02692890e-01 7.90055275e-01 7.73353517e-01 0. 0. 8.09403062e-01 7.93618441e-01 7.91096389e-01 7.93537855e-01 7.96766102e-01 7.97202349e-01 7.94745743e-01 7.94533968e-01 7.87098765e-01 7.90518820e-01 7.95232892e-01 8.07176232e-01 8.11617136e-01 7.97578990e-01 7.85894990e-01 7.57783294e-01 7.91024745e-01 8.00546110e-01 7.83592403e-01 7.98631489e-01 8.15403759e-01 7.88672388e-01 8.00972879e-01 8.06031525e-01 7.97859907e-01 7.95028567e-01 8.23655546e-01 8.38485658e-01 8.30826283e-01 8.19008231e-01 8.24003994e-01 8.29935431e-01 8.41853261e-01 8.39280248e-01 8.47022951e-01 8.44532907e-01 0. 8.63208532e-01 8.63370657e-01 8.61833036e-01 8.74803245e-01 8.67140234e-01 0. 8.88536751e-01 8.71950269e-01 8.72050166e-01 8.72513175e-01 8.74902308e-01 8.81064951e-01 8.74682724e-01 8.93024445e-01 9.11910474e-01 9.25227761e-01 9.22400415e-01 9.18008268e-01 0. 0. 0. 0. 0. 0. 0. 0. 0. 0. 0. 0. 0. 0. 9.59323645e-01 9.68272328e-01 8.60725045e-01 8.58372986e-01 8.42884719e-01 8.46987665e-01 8.53118479e-01 8.60734820e-01 8.69845450e-01 0. 0. 0. 0. 0. 0. 0. 0. 0. 0. 0. 0. 0. 0. 0. 0. 0. 0. 0. 9.10791457e-01 8.97119641e-01 0. 0. 9.26130116e-01 9.60564196e-01 9.38318849e-01 9.30401921e-01 9.23907995e-01 9.21074927e-01 7.37391055e-01 7.34388411e-01 7.44609416e-01 7.20029593e-01 0. 0. 7.19294190e-01 7.08734393e-01 7.05654323e-01 7.07329571e-01 7.05057621e-01 7.03672826e-01 7.09630191e-01 7.15921819e-01 7.00716913e-01 6.93762481e-01 7.07547784e-01 7.10612297e-01 7.16768086e-01 0. 0. 0. 0. 0. 0. 0. 0. 0. 0. 0. 0. 0. 0. 0. 0. 0. 0. 0. 0. 0. 7.98629820e-01 7.89618075e-01 7.69339800e-01 7.63073742e-01 7.52875686e-01 7.59038448e-01 7.60488093e-01 7.59403408e-01 7.57675648e-01 7.81164289e-01 7.84962833e-01 7.82252908e-01 7.91498423e-01 7.91178167e-01 8.23103368e-01 8.12078774e-01 7.98919678e-01 8.07207763e-01 7.98228502e-01 8.52536440e-01 9.00739729e-01 9.00136709e-01 8.81806374e-01 8.73374462e-01 8.71908665e-01 8.84936035e-01 8.68156195e-01 8.66955698e-01 8.58844638e-01 8.53853285e-01 8.49174261e-01 8.81379604e-01 8.94808829e-01 8.79077733e-01 9.45469081e-01 9.19754386e-01 1.01870501e+00 9.76158440e-01 9.60738540e-01 9.18231010e-01 9.16950881e-01 9.34269130e-01 9.09946144e-01 8.77468467e-01 8.86054635e-01 8.88833523e-01 8.89203489e-01 8.96087468e-01 9.11154509e-01 9.05095220e-01 9.10256684e-01 9.14888680e-01 9.20742810e-01 9.21733379e-01 9.18937087e-01 9.39246655e-01 9.21818495e-01 9.26505744e-01 9.04326916e-01 9.18359101e-01 9.14547980e-01 9.36389804e-01 9.34861362e-01 9.45747614e-01 9.49636877e-01 9.51538265e-01 9.39444065e-01 9.29705083e-01 9.28999305e-01 9.36345816e-01 9.41849291e-01 9.41796184e-01 9.76236641e-01 9.84787524e-01 9.92015719e-01 9.85451102e-01 1.05753887e+00 1.01888335e+00 9.95309889e-01 9.53891873e-01 1.01576352e+00 0. 0. 1.00515473e+00 9.97514486e-01 9.96462762e-01 1.01581109e+00 0. 1.01654804e+00 1.01855791e+00 9.99684572e-01 9.95632946e-01 1.00878882e+00 1.03702784e+00 1.04149568e+00 1.02878225e+00 1.02640307e+00 1.00553787e+00 1.00110042e+00 9.87655878e-01 9.68454421e-01 0. 0. 0. 1.00372994e+00 9.97166812e-01 9.95008945e-01 9.94435668e-01 9.93159771e-01 0. 0. 0. 1.05551922e+00 1.04397702e+00 1.05288875e+00 0. 0. 0. 0. 0. 0. 0. 0. 0. 0. 0. 0. 0. 0. 0. 0. 0. 0. 0. 0. 6.98219895e-01 7.10415304e-01 6.95645511e-01 6.83720648e-01 7.17202067e-01 7.42751777e-01 7.40672767e-01 7.51971066e-01 7.72694886e-01 8.09573352e-01 8.05101693e-01 7.86211729e-01 8.17527473e-01 8.21626902e-01 8.12192559e-01 8.09607983e-01 8.19253027e-01 8.23396981e-01 8.36566091e-01 8.37123334e-01 8.36117327e-01 8.38064909e-01 8.41636002e-01 8.32580566e-01 8.30497742e-01 8.02579105e-01 8.06674004e-01 7.91997492e-01 8.09568644e-01 8.11498284e-01 8.08623672e-01 8.09715569e-01 8.26343834e-01 8.32532406e-01 8.28539789e-01 8.20357800e-01 7.79078186e-01 0. 8.70216548e-01 7.95154333e-01 8.72827590e-01 8.67613614e-01 8.65773916e-01 8.64313602e-01 8.17133725e-01 8.55446219e-01 8.06264043e-01 8.21348965e-01 8.17870975e-01 8.20476890e-01 8.16942930e-01 8.12499881e-01 8.14907253e-01 8.12245488e-01 8.11410487e-01 8.03959846e-01 8.00201714e-01 7.99156487e-01 8.02945852e-01 8.12332451e-01 0. 0. 8.72636378e-01 8.63949358e-01 8.49972606e-01 0. 0. 0. 0. 0. 0. 0. 0. 0. 0. 0. 0. 9.92723882e-01 9.90483284e-01 9.98489976e-01 9.75706697e-01 1.01850593e+00 1.01933670e+00 1.02861226e+00 8.76317143e-01 9.26703870e-01 9.26875114e-01 1.13674426e+00 1.14323461e+00 1.10025024e+00 0. 0. 0. 0. 0. 0. 0. 0. 0. 0. 0. 0. 0. 0. 0. 0. 0. 0. 0. 0. 0. 0. 0. 0. 0. 0. 0. 0. 0. 0. 0. 7.34849513e-01 7.23773122e-01 7.78955817e-01 7.74604082e-01 7.64158726e-01 7.73012877e-01 7.81481624e-01 7.84034908e-01 7.70784855e-01 7.84829617e-01 0. 0. 0. 0. 0. 0. 0. 0. 0. 0. 0. 0. 0. 0. 0. 0. 0. 0. 0. 0. 0. 0. 0. 0. 0. 0. 0. 0. 9.55417514e-01 9.52748239e-01 9.33888197e-01 9.33734298e-01 9.34146941e-01 9.34890628e-01 9.36063707e-01 9.28269207e-01 9.33103085e-01 9.11229968e-01 9.04293001e-01 8.96974981e-01 9.02184486e-01 8.72932553e-01 8.83278489e-01 8.78009379e-01 8.80534768e-01 8.85045588e-01 0. 0. 0. 0. 0. 0. 0. 0. 0. 0. 0. 0. 0. 0. 0. 0. 0. 0. 0. 0. 1.24614489e+00 9.49229836e-01 9.59779143e-01 9.68516052e-01 9.55200911e-01 9.60004747e-01 9.43171501e-01 8.97941589e-01 9.33664143e-01 9.43270564e-01 9.37141359e-01 9.58467066e-01 9.44770396e-01 9.42813516e-01 9.49315429e-01 9.53143060e-01 9.51392472e-01
    0. 0. 0. 0. 0. 0. 0. 0. 0. 0. 0. 0. 0. 0. 0. 7.88402557e-01 8.33148301e-01 8.24617684e-01 8.03646564e-01 8.01661789e-01 8.01643372e-01 8.05535614e-01 8.03401649e-01 7.98565447e-01 7.77611613e-01 7.82879233e-01 7.99684584e-01 8.05381358e-01 8.01067173e-01 7.94561028e-01 7.88212180e-01 7.77692258e-01 7.95485735e-01 7.99534440e-01 7.97185183e-01 7.93941617e-01 7.96240211e-01 8.18782985e-01 8.20764124e-01 8.20273817e-01 8.13998342e-01 8.21994305e-01 8.26654255e-01 8.23746562e-01 8.15696418e-01 8.27066064e-01 8.25001359e-01 8.31032991e-01 8.39574754e-01 8.40849400e-01 8.41236293e-01 0. 8.63000274e-01 8.84556353e-01 8.77109230e-01 8.71854722e-01 8.65082860e-01 0. 8.89923632e-01 8.67795467e-01 8.69140983e-01 8.70855153e-01 8.76693845e-01 8.75491440e-01 8.76666784e-01 8.77730191e-01 8.93455744e-01 9.06863332e-01 0. 0. 0. 0. 0. 0. 0. 0. 0. 0. 0. 0. 0. 0. 0. 0. 8.67725611e-01 8.66213500e-01 8.72047722e-01 8.59482288e-01 8.56125057e-01 0. 0. 0. 0. 0. 0. 0. 0. 0. 0. 0. 0. 0. 0. 0. 0. 0. 9.47087288e-01 9.58351076e-01 9.47013974e-01 0. 0. 9.32864845e-01 8.92633677e-01 8.84215951e-01 8.78877938e-01 8.88964534e-01 8.98750365e-01 9.50892925e-01 9.25083160e-01 9.22250926e-01 9.34055626e-01 8.48670065e-01 7.64967382e-01 7.43759513e-01 7.01385319e-01 7.59248734e-01 7.08630264e-01 7.15430379e-01 7.09314525e-01 6.94949508e-01 7.01524436e-01 7.15491593e-01 7.04270601e-01 7.09676862e-01 7.17997611e-01 7.25289106e-01 7.28822768e-01 7.14523554e-01 7.08968341e-01 7.08702505e-01 6.99226856e-01 0. 0. 0. 0. 0. 0. 0. 6.78802729e-01 6.79294944e-01 6.79138005e-01 0. 0. 0. 0. 0. 0. 0. 0. 0. 0. 0. 7.79882073e-01 7.73665309e-01 7.65108347e-01 7.63265610e-01 7.59246588e-01 7.63803780e-01 7.65837789e-01 7.58092403e-01 7.87183523e-01 7.83562720e-01 7.84418344e-01 7.88481534e-01 7.97486186e-01 7.96599805e-01 7.97632277e-01 8.06946099e-01 8.01831424e-01 8.05375755e-01 7.98878014e-01 7.95761943e-01 8.93079638e-01 8.86736989e-01 8.95503283e-01 8.75540495e-01 8.74046504e-01 8.98648977e-01 8.84690344e-01 8.71817946e-01 8.74351859e-01 8.51411462e-01 8.72801363e-01 9.50169742e-01 9.33302104e-01 9.25393939e-01 9.23727930e-01 9.08768952e-01 9.06482518e-01 9.07361507e-01 9.19783235e-01 8.99147570e-01 8.97508860e-01 9.28580940e-01 8.94423962e-01 8.88188004e-01 8.95957649e-01 8.86315525e-01 8.93202901e-01 8.92232656e-01 9.03287411e-01 9.13250744e-01 9.15274322e-01 9.17680979e-01 9.16465223e-01 9.21879768e-01 9.16526020e-01 9.26772058e-01 9.05229330e-01 9.03466344e-01 9.01034892e-01 9.11522150e-01 9.15734708e-01 9.14616346e-01 9.38502014e-01 9.21258211e-01 9.23412383e-01 9.27616000e-01 9.38756287e-01 9.38137412e-01 9.47885573e-01 9.45928574e-01 9.89740729e-01 9.42244768e-01 9.65233207e-01 9.75479901e-01 1.00968444e+00 9.97126639e-01 1.00324702e+00 9.93396878e-01 9.77042913e-01 9.66699004e-01 9.68453765e-01 9.51848328e-01 9.38450158e-01 9.87970173e-01 9.69998956e-01 9.91968691e-01 1.07363892e+00 9.91340458e-01 1.01279604e+00 1.03649163e+00 9.72616792e-01 9.13037241e-01 9.74960148e-01 1.01219773e+00 1.10122836e+00 1.11510086e+00 1.07144868e+00 9.83143270e-01 9.44360912e-01 9.77618396e-01 9.74620461e-01 0. 0. 0. 1.00030446e+00 1.00085604e+00 1.01011372e+00 0. 0. 0. 0. 0. 1.04927862e+00 1.04676664e+00 1.04782295e+00 0. 0. 0. 0. 0. 0. 0. 0. 0. 0. 0. 0. 0. 0. 0. 0. 0. 0. 0. 6.86133623e-01 6.91893637e-01 6.99086487e-01 6.90483034e-01 7.05704808e-01 7.16602147e-01 7.40311563e-01 7.39091337e-01 7.50571311e-01 7.78927863e-01 7.88532317e-01 8.09366107e-01 8.11599731e-01 8.06722403e-01 8.10564876e-01 8.12153995e-01 8.09806824e-01 8.20706069e-01 8.23882639e-01 8.22992682e-01 8.24677348e-01 8.29483628e-01 8.36832762e-01 8.26202214e-01 8.39293480e-01 8.12908471e-01 8.13198388e-01 8.00311506e-01 8.07332993e-01 8.04852724e-01 8.14131856e-01 8.13947201e-01 8.11228514e-01 8.12798738e-01 8.26017141e-01 8.19695115e-01 8.08737695e-01 7.76139915e-01 8.54575217e-01 7.99253523e-01 8.25605452e-01 8.48734915e-01 8.44965518e-01 8.42312872e-01 8.28209281e-01 8.20642769e-01 8.13190162e-01 8.27749729e-01 8.22999954e-01 8.10223818e-01 8.08870137e-01 8.08972180e-01 8.24341178e-01 8.16650450e-01 8.16392541e-01 7.88849652e-01 8.04875195e-01 7.99725413e-01 8.00651491e-01 8.04995894e-01 8.19843054e-01 0. 0. 0. 0. 0. 0. 8.26188385e-01 8.10489774e-01 0. 0. 0. 0. 0. 0. 0. 0. 0. 9.37386990e-01 9.03228164e-01 8.94259155e-01 8.95317376e-01 9.76114511e-01 9.87127185e-01 1.03489840e+00 8.65428686e-01 9.20640171e-01 9.19504344e-01 9.12291110e-01 0. 0. 0. 0. 0. 0. 0. 0. 0. 0. 0. 0. 0. 0. 0. 0. 0. 0. 0. 0. 0. 0. 0. 0. 0. 0. 0. 0. 0. 0. 0. 0. 0. 7.23339260e-01 7.28067875e-01 7.89702892e-01 7.81070173e-01 7.67668545e-01 8.08299184e-01 7.82551169e-01 7.93459773e-01 7.86485851e-01 7.87617922e-01 0. 0. 0. 0. 0. 0. 0. 0. 0. 0. 0. 0. 0. 0. 0. 0. 0. 0. 0. 0. 0. 0. 0. 0. 0. 0. 0. 0. 0. 9.19570684e-01 9.27456439e-01 9.12541509e-01 9.28272784e-01 9.29923236e-01 9.29114521e-01 9.26719785e-01 9.30787921e-01 9.15995479e-01 9.05185878e-01 9.05220032e-01 9.00382578e-01 8.63295436e-01 8.87619019e-01 8.76309454e-01 8.61042261e-01 8.77448916e-01 0. 8.89123976e-01 0. 0. 0. 0. 0. 0. 0. 0. 0. 0. 0. 0. 0. 0. 0. 0. 0. 0. 0. 9.95248973e-01 9.58934247e-01 9.64899421e-01 9.59137380e-01 9.86684978e-01 9.88245130e-01 9.54069912e-01 0. 9.65745807e-01 9.61818635e-01 9.52595890e-01 9.62499201e-01 9.59713697e-01 9.60160792e-01 9.56794322e-01 9.54409838e-01
    0. 0. 0. 0. 0. 0. 0. 0. 0. 0. 0. 0. 0. 0. 0. 8.49680126e-01 8.93716216e-01 9.15647864e-01 8.40598226e-01 8.19574177e-01 8.01635206e-01 8.18785429e-01 8.23365808e-01 8.05700421e-01 8.07200074e-01 8.04715455e-01 8.09502661e-01 8.15579176e-01 8.12790096e-01 8.16092074e-01 8.13574672e-01 8.03250074e-01 8.01548660e-01 7.95042753e-01 8.12526226e-01 8.31586003e-01 8.13666582e-01 8.32158864e-01 8.39165986e-01 8.40199649e-01 8.23006392e-01 8.24609876e-01 8.25455427e-01 8.22937310e-01 8.53754818e-01 8.30976188e-01 8.35527480e-01 8.40264440e-01 8.42320204e-01 8.38722765e-01 8.32883596e-01 0. 8.59382927e-01 8.58705044e-01 8.67545247e-01 8.66423666e-01 8.74251842e-01 0. 0. 8.71912003e-01 8.72878075e-01 8.75293195e-01 8.73484313e-01 8.80855858e-01 8.87694836e-01 8.90905082e-01 0. 0. 0. 0. 0. 0. 0. 0. 0. 0. 0. 0. 0. 0. 0. 8.51423144e-01 8.69210303e-01 8.66820514e-01 8.71447921e-01 8.57383907e-01 8.64515185e-01 8.58757675e-01 8.63585711e-01 0. 9.02122378e-01 8.87848377e-01 8.86122227e-01 8.97510588e-01 0. 0. 0. 0. 0. 0. 0. 0. 0. 0. 9.42904055e-01 9.42779541e-01 9.55291092e-01 9.56097901e-01 9.42969024e-01 9.29098368e-01 8.72851908e-01 9.22949016e-01 8.66203189e-01 8.86794984e-01 8.72069299e-01 8.62641513e-01 8.84890437e-01 8.89930069e-01 9.07672226e-01 8.91752601e-01 8.78064811e-01 8.45310450e-01 7.94350207e-01 7.53041863e-01 7.47015893e-01 7.13678181e-01 7.09971607e-01 7.06241429e-01 7.02621698e-01 7.02545464e-01 7.00833261e-01 6.98445499e-01 7.13640928e-01 7.12768972e-01 7.17745900e-01 7.05714226e-01 6.99244857e-01 6.99737132e-01 7.14296639e-01 7.09239006e-01 0. 0. 0. 0. 0. 0. 0. 6.76816702e-01 6.78460419e-01 6.80014014e-01 0. 6.79047883e-01 0. 0. 0. 0. 0. 0. 0. 0. 0. 0. 0. 7.66042352e-01 7.53464580e-01 7.50807881e-01 7.62314737e-01 7.73699403e-01 7.65192032e-01 7.74050772e-01 7.82420695e-01 7.83378065e-01 7.86822736e-01 7.89462566e-01 7.97308445e-01 7.94129550e-01 7.95985579e-01 8.04139018e-01 8.02396238e-01 8.04689348e-01 0. 9.02902424e-01 8.87542486e-01 8.92443657e-01 8.77382755e-01 8.78212929e-01 8.64368856e-01 8.69620323e-01 8.74410033e-01 8.82905245e-01 8.64703476e-01 8.64907205e-01 8.66629064e-01 8.47011507e-01 8.93097341e-01 9.22159791e-01 8.65233004e-01 8.85708690e-01 8.80939484e-01 8.63643110e-01 8.74338686e-01 8.80987406e-01 8.75586748e-01 8.79538655e-01 8.65535378e-01 8.84403169e-01 8.78751636e-01 8.85120392e-01 8.78757179e-01 8.92134070e-01 8.98077607e-01 9.12252307e-01 9.12541330e-01 9.24470067e-01 9.20379937e-01 9.13057387e-01 9.04804111e-01 9.07722831e-01 9.04305696e-01 9.03779149e-01 9.08302605e-01 9.18597758e-01 9.27849889e-01 8.94684196e-01 9.28683758e-01 8.82088125e-01 8.84143353e-01 9.27801609e-01 9.21806812e-01 9.32611048e-01 9.53195870e-01 9.51429129e-01 9.52375174e-01 1.00829577e+00 9.60107923e-01 9.14392233e-01 9.73133564e-01 9.91724312e-01 9.78114009e-01 9.70167875e-01 9.49208677e-01 9.41463053e-01 9.75968778e-01 1.00066161e+00 9.90700424e-01 8.98615777e-01 9.25626814e-01 9.57895935e-01 9.81944084e-01 9.76111114e-01 9.55974460e-01 8.96618247e-01 9.36562657e-01 9.30901349e-01 9.56377149e-01 9.26351428e-01 1.01661897e+00 1.03794789e+00 1.07469046e+00 9.59707439e-01 9.79458451e-01 9.76083398e-01 9.78116155e-01 0. 0. 0. 0. 0. 0. 0. 0. 0. 0. 0. 0. 0. 0. 0. 0. 0. 0. 0. 0. 0. 0. 0. 0. 0. 0. 0. 0. 0. 0. 0. 0. 0. 7.05929935e-01 7.05211937e-01 7.09531426e-01 7.16741860e-01 7.16754019e-01 7.13818669e-01 7.24764645e-01 7.31725991e-01 7.49028981e-01 7.54046798e-01 7.80043900e-01 8.00107539e-01 8.06754112e-01 8.06113899e-01 8.09510410e-01 8.13798308e-01 8.14963520e-01 8.19743574e-01 8.30562174e-01 8.22592795e-01 8.23033929e-01 8.08441401e-01 8.57123256e-01 8.52939069e-01 8.54125381e-01 8.25823307e-01 8.03313792e-01 8.07369530e-01 8.00032377e-01 8.04848313e-01 8.15611243e-01 8.18257987e-01 8.13373744e-01 8.20974290e-01 8.27115655e-01 8.27032566e-01 8.25181007e-01 8.24970782e-01 8.16442370e-01 7.81917155e-01 8.49932015e-01 8.04144025e-01 8.05370033e-01 8.04089308e-01 8.00878942e-01 8.20870996e-01 7.96014369e-01 8.04567695e-01 7.97048807e-01 8.04774165e-01 8.01856279e-01 7.95788646e-01 8.16087008e-01 8.13864291e-01 8.34580302e-01 8.10320497e-01 8.08901727e-01 8.21657002e-01 8.14206004e-01 8.18500936e-01 8.22803617e-01 8.19736540e-01 8.60329986e-01 0. 8.45738173e-01 8.50212514e-01 8.34625006e-01 8.26100767e-01 8.50050449e-01 8.61500323e-01 0. 0. 0. 0. 0. 0. 0. 0. 8.87595117e-01 9.33482409e-01 1.00260758e+00 9.95568097e-01 9.91240561e-01 9.76992488e-01 9.61780488e-01 9.23400104e-01 9.24412310e-01 9.25610423e-01 9.00333107e-01 0. 0. 0. 0. 0. 0. 0. 0. 0. 0. 0. 0. 0. 0. 0. 0. 0. 0. 0. 0. 0. 0. 0. 0. 0. 0. 0. 0. 0. 0. 0. 0. 7.29135990e-01 7.31196404e-01 7.28056788e-01 7.19967782e-01 7.12658763e-01 7.54210949e-01 0. 8.12231123e-01 8.04131925e-01 7.86118448e-01 7.93254435e-01 0. 0. 0. 0. 0. 0. 0. 0. 0. 0. 0. 0. 0. 0. 0. 0. 0. 0. 0. 0. 0. 0. 0. 0. 0. 0. 0. 0. 0. 0. 9.12372649e-01 9.23594415e-01 9.30196404e-01 9.32870030e-01 9.31301594e-01 9.30236876e-01 9.24724042e-01 9.23551202e-01 9.11051691e-01 9.01297569e-01 9.00398135e-01 8.96780431e-01 8.76486540e-01 8.74311507e-01 0. 0. 0. 0. 0. 0. 0. 0. 0. 0. 0. 0. 0. 0. 0. 0. 0. 0. 0. 0. 0. 0. 0. 9.79548573e-01 9.64003742e-01 9.53111172e-01 9.59821403e-01 9.99752820e-01 9.91526425e-01 9.82537091e-01 0. 9.51833844e-01 9.43560004e-01 9.56502259e-01 9.54785049e-01 9.56868172e-01 9.52055216e-01 9.48960662e-01 9.48779762e-01
    0. 0. 0. 0. 0. 0. 0. 0. 0. 0. 0. 0. 0. 0. 0. 8.86166513e-01 9.20288563e-01 9.12800789e-01 8.66099298e-01 8.43497753e-01 8.60546947e-01 8.15326273e-01 8.72067451e-01 8.56971800e-01 8.21936309e-01 8.13269258e-01 8.09626818e-01 8.12754333e-01 8.31365347e-01 8.34146023e-01 8.31926703e-01 8.28206897e-01 8.09880912e-01 7.97052622e-01 8.31182361e-01 8.39429677e-01 8.72358203e-01 9.02626216e-01 8.88437212e-01 8.69949102e-01 8.38618934e-01 8.24445069e-01 8.28310668e-01 8.30913007e-01 8.36781800e-01 8.36830556e-01 8.43421280e-01 8.58903050e-01 8.40890348e-01 8.25890422e-01 8.50695848e-01 0. 0. 8.64167094e-01 8.64723802e-01 8.65959644e-01 8.62520158e-01 0. 8.71527493e-01 8.81837785e-01 8.76005173e-01 8.78140092e-01 8.82407784e-01 9.13910985e-01 9.19114172e-01 0. 0. 0. 0. 0. 0. 0. 0. 0. 0. 0. 0. 0. 0. 0. 8.64826500e-01 8.36922407e-01 8.48646998e-01 8.45179856e-01 8.91918659e-01 8.54365766e-01 8.56444180e-01 8.52165401e-01 8.60476494e-01 8.76216710e-01 9.00030553e-01 9.04799104e-01 9.06010807e-01 9.09084022e-01 8.87143373e-01 9.17221189e-01 9.12651420e-01 9.21886623e-01 9.37464237e-01 9.68008101e-01 9.20156538e-01 9.27950859e-01 9.13477063e-01 9.33727622e-01 9.72045660e-01 9.66110587e-01 9.43900526e-01 8.36616158e-01 9.05384004e-01 8.76774192e-01 8.55768740e-01 8.82589579e-01 8.61963153e-01 8.65630269e-01 8.57964993e-01 8.69528830e-01 8.66167605e-01 8.25444758e-01 8.58320534e-01 8.42585087e-01 9.01868403e-01 8.87154579e-01 7.97924399e-01 7.52480567e-01 7.62931406e-01 7.04933763e-01 6.97035313e-01 7.10728884e-01 7.10202634e-01 7.02899218e-01 7.04000950e-01 7.01777756e-01 7.07793057e-01 7.15698421e-01 7.18397379e-01 7.13487983e-01 7.13351250e-01 7.26932824e-01 7.14765847e-01 0. 0. 0. 0. 0. 0. 0. 0. 0. 6.79157436e-01 6.77863657e-01 6.78049028e-01 0. 0. 0. 0. 0. 0. 0. 0. 0. 0. 0. 0. 0. 0. 7.56555438e-01 7.63760209e-01 7.83048451e-01 7.77346134e-01 7.80409157e-01 7.88969398e-01 7.73895383e-01 7.82790780e-01 7.93132365e-01 7.78862298e-01 8.01180780e-01 8.03540170e-01 7.97347784e-01 8.02090228e-01 7.86686540e-01 7.94659376e-01 8.62204134e-01 8.65065873e-01 8.62685382e-01 8.59352767e-01 8.69291902e-01 8.46431196e-01 8.49010706e-01 8.95794153e-01 8.66011918e-01 8.53470504e-01 8.36004257e-01 8.57939303e-01 8.66308868e-01 8.72135043e-01 8.44392657e-01 8.41733634e-01 8.61704767e-01 8.73074591e-01 8.74255836e-01 8.68547380e-01 8.54999661e-01 8.63358080e-01 8.64556611e-01 9.26542699e-01 8.64634812e-01 8.60973358e-01 8.74104321e-01 8.81971955e-01 8.77226293e-01 8.84055853e-01 9.11389232e-01 9.03538525e-01 8.57831836e-01 9.07139957e-01 9.14522350e-01 9.03109848e-01 8.79030943e-01 8.73324990e-01 8.83576095e-01 8.76054943e-01 9.32069302e-01 9.06573176e-01 8.61002803e-01 8.66489410e-01 8.38021874e-01 8.51709604e-01 8.49630535e-01 8.80007386e-01 9.09550726e-01 9.36166406e-01 9.65126336e-01 9.49495196e-01 9.56680954e-01 9.54514682e-01 9.38457489e-01 9.34967637e-01 9.44047093e-01 9.63220358e-01 9.38079476e-01 9.20668781e-01 8.69887173e-01 9.19801772e-01 9.31866765e-01 9.17799830e-01 8.75069976e-01 8.54100406e-01 9.57811832e-01 9.40615773e-01 9.32776570e-01 8.96619499e-01 9.12419498e-01 8.78912926e-01 1.00226009e+00 9.60962057e-01 9.63711321e-01 9.54341769e-01 1.00246811e+00 1.04940939e+00 9.32294190e-01 9.45377290e-01 9.69109416e-01 0. 0. 0. 0. 0. 0. 0. 0. 0. 0. 0. 0. 0. 0. 0. 0. 0. 0. 0. 0. 0. 0. 0. 0. 0. 0. 0. 0. 0. 0. 0. 0. 0. 0. 7.15243757e-01 7.12008655e-01 7.12834775e-01 7.09978759e-01 7.11462915e-01 7.07158864e-01 7.15981662e-01 7.17574835e-01 7.11728990e-01 7.33755291e-01 7.64134943e-01 7.90257514e-01 7.99394846e-01 8.03485274e-01 8.12013507e-01 8.24068844e-01 8.16691458e-01 8.26344073e-01 8.20528805e-01 8.14064503e-01 8.17730427e-01 8.46756101e-01 8.20161700e-01 8.30862105e-01 8.35745990e-01 8.35322678e-01 8.30998421e-01 8.10729563e-01 8.11275899e-01 8.15818310e-01 8.19993794e-01 8.18840504e-01 8.26758623e-01 8.39394748e-01 8.48325908e-01 8.13802361e-01 8.78900230e-01 8.28933179e-01 8.22450459e-01 8.42541873e-01 7.94167340e-01 7.94324458e-01 7.93242157e-01 8.18645597e-01 8.76052201e-01 8.26703787e-01 8.21764946e-01 7.92428613e-01 7.95877695e-01 7.95787990e-01 7.91126430e-01 8.10326695e-01 7.98293769e-01 8.08237553e-01 7.77957618e-01 8.12353611e-01 8.17313492e-01 8.19949806e-01 8.20997536e-01 8.22676778e-01 8.23234558e-01 8.26916575e-01 8.42802823e-01 8.50726724e-01 8.65281761e-01 8.44624281e-01 9.07774627e-01 8.88747811e-01 9.25063670e-01 9.26396251e-01 9.30604458e-01 0. 0. 0. 0. 0. 0. 0. 8.99333239e-01 9.16062891e-01 9.95652556e-01 9.91384745e-01 9.78544414e-01 9.83263433e-01 0. 0. 0. 0. 0. 0. 0. 0. 0. 0. 0. 0. 0. 0. 0. 0. 0. 0. 0. 0. 0. 0. 0. 0. 0. 0. 0. 0. 0. 0. 0. 0. 0. 0. 0. 0. 0. 7.28121459e-01 7.32710838e-01 7.24805295e-01 7.21877575e-01 7.14041710e-01 0. 0. 7.60176480e-01 7.77781129e-01 7.94154644e-01 7.92991877e-01 0. 0. 0. 0. 0. 0. 0. 0. 0. 0. 0. 0. 0. 0. 0. 0. 0. 0. 0. 0. 0. 0. 0. 0. 0. 0. 0. 0. 0. 0. 9.23605204e-01 9.28669453e-01 9.26743805e-01 9.26567972e-01 9.25478280e-01 9.28764999e-01 9.26067948e-01 9.22870040e-01 9.28455532e-01 9.16281641e-01 9.08100545e-01 8.13636661e-01 8.68872285e-01 8.80204082e-01 8.61177325e-01 0. 0. 0. 0. 0. 0. 0. 0. 0. 0. 0. 0. 0. 0. 0. 0. 0. 0. 0. 0. 0. 0. 0. 9.68527794e-01 9.51607883e-01 9.70953584e-01 9.97458756e-01 9.78257179e-01 9.73360002e-01 0. 9.37438667e-01 9.38957214e-01 9.38943863e-01 9.49941635e-01 9.51200664e-01 9.51104879e-01 9.51715946e-01 9.46163297e-01
    0. 0. 0. 0. 0. 0. 0. 0. 0. 0. 0. 0. 0. 0. 9.15231884e-01 9.26081359e-01 9.24741626e-01 8.50297809e-01 8.71490419e-01 8.61211717e-01 8.46097231e-01 8.37038040e-01 8.30165565e-01 8.29990506e-01 8.25181544e-01 8.13396871e-01 8.08383048e-01 8.25735390e-01 8.91927183e-01 8.46936703e-01 8.38823736e-01 8.24266851e-01 8.15627515e-01 8.14240992e-01 8.33886027e-01 8.57901216e-01 8.75055611e-01 8.92378032e-01 9.13258374e-01 0. 8.36393833e-01 8.28172386e-01 8.27201545e-01 8.28719318e-01 8.41987252e-01 8.22619736e-01 8.44143212e-01 8.54654312e-01 8.45155716e-01 8.44137609e-01 8.47974777e-01 8.57034981e-01 8.54532242e-01 8.47036421e-01 8.59393358e-01 8.40393841e-01 8.62920284e-01 0. 8.76440287e-01 8.83421898e-01 8.77144456e-01 8.77270877e-01 8.76853824e-01 9.29997802e-01 1.02392793e+00 9.75368977e-01 0. 0. 0. 0. 0. 0. 0. 0. 0. 0. 0. 8.19878578e-01 8.31037581e-01 8.18049550e-01 8.13052475e-01 8.15936089e-01 8.42900217e-01 8.34234476e-01 9.07488167e-01 8.59155536e-01 8.67004216e-01 8.42226326e-01 8.42488468e-01 8.56359124e-01 9.07876551e-01 8.77917767e-01 8.79682124e-01 8.86274755e-01 8.86721313e-01 8.96168709e-01 9.07334745e-01 9.18669283e-01 9.57079232e-01 9.34774578e-01 9.24940288e-01 9.40031290e-01 9.42900538e-01 9.23561573e-01 9.49153066e-01 8.47558677e-01 9.07850027e-01 9.63905990e-01 9.02277291e-01 8.48667324e-01 9.18376923e-01 9.00464356e-01 8.57238710e-01 8.83743405e-01 8.72236967e-01 8.72225702e-01 8.55960608e-01 8.70501637e-01 8.89440358e-01 7.59941757e-01 7.82861412e-01 7.95075655e-01 7.58436382e-01 7.59370804e-01 7.63947785e-01 7.70395219e-01 7.09438562e-01 7.13103294e-01 7.13442683e-01 7.15572655e-01 6.89885557e-01 7.02437103e-01 7.15477347e-01 0. 0. 0. 0. 0. 0. 0. 0. 0. 0. 0. 0. 0. 0. 6.76908135e-01 6.77765489e-01 6.77597821e-01 0. 0. 0. 0. 0. 0. 0. 0. 0. 0. 0. 0. 0. 0. 0. 7.50276685e-01 7.46513009e-01 7.74000585e-01 7.80545890e-01 7.82991767e-01 7.71686554e-01 7.97079086e-01 7.91826606e-01 7.96279967e-01 7.95584142e-01 7.95499623e-01 7.95175552e-01 7.92804420e-01 7.70594478e-01 7.87786305e-01 8.07906568e-01 8.33041430e-01 8.18661571e-01 8.37958932e-01 8.31338286e-01 8.30539405e-01 8.29851031e-01 7.90878415e-01 8.87768865e-01 8.78288865e-01 8.52405429e-01 8.48511934e-01 8.51412952e-01 8.49384785e-01 8.54266047e-01 8.48225057e-01 8.55291188e-01 8.58205259e-01 8.56398761e-01 8.60517859e-01 8.44077170e-01 8.63812447e-01 8.61604571e-01 8.61776650e-01 8.71130824e-01 8.52655828e-01 8.49722564e-01 8.49905491e-01 8.65714729e-01 8.74303758e-01 0. 9.06975567e-01 8.88310671e-01 8.77512872e-01 8.50138724e-01 8.13847303e-01 8.48085761e-01 8.42663050e-01 8.05009484e-01 7.96946764e-01 7.88337708e-01 7.86818862e-01 7.81845927e-01 7.90461898e-01 7.79192150e-01 8.18110347e-01 8.17294657e-01 8.28653455e-01 8.52482378e-01 8.83597791e-01 9.40009475e-01 9.41551268e-01 9.38756585e-01 9.42033112e-01 1.00457776e+00 9.16698694e-01 9.02183414e-01 9.02918220e-01 9.07657981e-01 8.97977829e-01 8.90431881e-01 8.91692817e-01 9.06363487e-01 9.20231640e-01 8.60948801e-01 9.53939497e-01 8.97158802e-01 9.09210622e-01 9.14594650e-01 9.05249417e-01 8.92435849e-01 8.86762917e-01 9.19044077e-01 9.42217112e-01 9.56211925e-01 9.72162902e-01 9.62346375e-01 9.64951694e-01 9.63863015e-01 9.52113807e-01 9.38810110e-01 9.39065337e-01 0. 0. 0. 0. 0. 0. 0. 0. 0. 0. 0. 0. 0. 0. 0. 0. 0. 0. 0. 0. 0. 0. 0. 0. 0. 0. 0. 0. 0. 0. 0. 0. 0. 0. 7.11963058e-01 7.10491359e-01 7.08733320e-01 7.07643449e-01 7.08281219e-01 7.09240198e-01 7.11574376e-01 7.04952180e-01 7.16576993e-01 7.24294424e-01 7.47164190e-01 0. 0. 8.00330162e-01 0. 0. 0. 7.91810989e-01 7.92939484e-01 7.99032569e-01 8.06808293e-01 7.79470623e-01 7.85098612e-01 8.07020366e-01 8.39927495e-01 8.10349941e-01 8.22564304e-01 7.93871701e-01 8.28009188e-01 8.22372496e-01 8.35663378e-01 8.85015428e-01 8.53477120e-01 8.87076616e-01 8.60765278e-01 8.45644534e-01 8.18324268e-01 8.10563684e-01 8.33217740e-01 8.05675328e-01 8.04539382e-01 7.94089258e-01 8.71295094e-01 7.97802746e-01 7.94489801e-01 8.32381368e-01 7.90694177e-01 7.92671859e-01 7.87739515e-01 7.85033584e-01 7.87286222e-01 7.95838058e-01 7.99972236e-01 8.07074666e-01 8.42019737e-01 8.18524957e-01 8.20469737e-01 8.20050538e-01 8.19245338e-01 8.15134525e-01 8.14476192e-01 8.18218946e-01 8.57012689e-01 8.65103126e-01 9.07389164e-01 9.22113419e-01 9.22263205e-01 9.79132712e-01 1.06077898e+00 0. 0. 0. 0. 0. 0. 0. 0. 9.08918798e-01 9.23609376e-01 9.05287564e-01 9.04017210e-01 9.81933296e-01 9.80479240e-01 0. 0. 0. 0. 0. 0. 0. 0. 0. 0. 0. 0. 0. 0. 0. 0. 0. 0. 0. 0. 0. 0. 0. 0. 0. 0. 0. 0. 0. 0. 0. 0. 0. 0. 0. 0. 0. 0. 7.27164268e-01 7.19278991e-01 7.27410972e-01 7.20792711e-01 7.16344655e-01 7.65534997e-01 0. 8.23568344e-01 8.12976599e-01 8.12477946e-01 7.93589532e-01 0. 0. 0. 0. 0. 0. 0. 0. 0. 0. 0. 0. 0. 0. 0. 0. 0. 0. 0. 0. 0. 0. 0. 0. 0. 0. 0. 0. 0. 0. 8.98779750e-01 9.30566013e-01 9.30468500e-01 9.32475328e-01 9.29918945e-01 9.33965802e-01 9.35267091e-01 9.36795056e-01 9.01999891e-01 9.27197397e-01 9.13755476e-01 8.65200698e-01 8.63604426e-01 8.72540534e-01 8.67637098e-01 8.48952651e-01 9.02280867e-01 9.03672159e-01 8.98034036e-01 8.53204250e-01 0. 0. 0. 0. 0. 0. 0. 8.57364595e-01 8.56161952e-01 8.54010344e-01 0. 0. 0. 0. 0. 0. 0. 0. 0. 0. 9.24335003e-01 1.01404297e+00 9.47080791e-01 1.00026345e+00 9.91131365e-01 9.30076480e-01 9.30524230e-01 9.44777548e-01 9.40981686e-01 9.71347570e-01 9.36096907e-01 9.37433958e-01 9.36955571e-01
    0. 0. 0. 0. 0. 0. 0. 0. 0. 0. 0. 0. 0. 0. 9.28137898e-01 9.24911320e-01 9.04152334e-01 8.85883987e-01 8.75299990e-01 8.60792041e-01 8.51587176e-01 8.42953682e-01 8.38733137e-01 8.34828138e-01 8.28733921e-01 0. 0. 8.34754169e-01 8.54412138e-01 8.51235211e-01 8.41308236e-01 8.31791222e-01 0. 0. 0. 0. 0. 0. 0. 0. 0. 0. 0. 8.49173486e-01 8.60907793e-01 8.58997762e-01 8.41955841e-01 8.41140389e-01 8.43403101e-01 8.55100513e-01 8.49084616e-01 8.55839252e-01 8.48567307e-01 8.49093199e-01 8.37321997e-01 8.56564343e-01 8.60531151e-01 0. 9.03975606e-01 8.80004644e-01 8.75435710e-01 8.89280677e-01 9.16475832e-01 1.01086020e+00 1.01656461e+00 9.86942410e-01 0. 0. 0. 0. 0. 0. 0. 0. 0. 0. 8.03110182e-01 8.18354368e-01 8.20345521e-01 8.15626442e-01 8.18300247e-01 8.23064446e-01 8.22262526e-01 8.15760016e-01 9.06546831e-01 8.23731065e-01 8.23462367e-01 8.33063364e-01 8.38108003e-01 8.19901407e-01 8.07090819e-01 8.14443767e-01 8.50150049e-01 8.63704920e-01 8.70514810e-01 8.80225301e-01 8.95880342e-01 9.05574679e-01 9.04441178e-01 9.05367970e-01 9.12465394e-01 9.17949378e-01 9.19939697e-01 9.00166154e-01 8.96977484e-01 9.03164029e-01 9.14232492e-01 8.98914278e-01 9.25016642e-01 8.98997843e-01 9.19531584e-01 8.69799018e-01 8.67058396e-01 8.76000226e-01 8.73972952e-01 8.78967464e-01 8.78663659e-01 8.73772740e-01 8.17396224e-01 7.33818471e-01 7.81637490e-01 7.62599885e-01 7.58664131e-01 7.67813981e-01 7.65672684e-01 7.05570638e-01 6.97709560e-01 7.10965633e-01 7.02225804e-01 6.90321147e-01 6.86515749e-01 0. 0. 0. 0. 0. 0. 0. 0. 0. 0. 0. 0. 0. 0. 0. 0. 0. 0. 0. 0. 0. 0. 0. 0. 0. 0. 0. 0. 0. 0. 0. 0. 0. 0. 7.41425455e-01 7.59417892e-01 7.65162230e-01 7.74204373e-01 7.51659155e-01 7.53814757e-01 7.81923234e-01 8.13476443e-01 8.19029093e-01 8.15465987e-01 7.94155836e-01 7.89618671e-01 7.86960423e-01 7.87835240e-01 8.15351605e-01 8.00828934e-01 8.07948887e-01 7.68945634e-01 8.55928779e-01 8.26835036e-01 8.25643241e-01 7.95936584e-01 8.24877381e-01 8.03931177e-01 8.46376359e-01 8.34641576e-01 0. 0. 0. 0. 0. 0. 8.53809476e-01 8.48212063e-01 8.50657642e-01 8.46873522e-01 8.52628946e-01 8.45729828e-01 8.60720515e-01 8.70269537e-01 8.97448778e-01 8.58399272e-01 8.88830125e-01 8.39527965e-01 8.62760663e-01 8.65184903e-01 8.57270181e-01 8.09191763e-01 7.99819469e-01 8.15241516e-01 8.05233657e-01 8.20407510e-01 8.11426520e-01 8.09961438e-01 7.94621289e-01 7.91491926e-01 7.90604293e-01 7.83439994e-01 7.79105306e-01 7.80162156e-01 8.14686358e-01 7.97081172e-01 8.05037022e-01 8.57586443e-01 8.52651656e-01 8.53802621e-01 8.63911748e-01 9.49638188e-01 9.55238044e-01 9.31813180e-01 9.11628544e-01 8.84018242e-01 8.78277004e-01 8.54032457e-01 8.69221926e-01 8.74362171e-01 8.55118573e-01 9.11502063e-01 8.96045327e-01 8.66256237e-01 8.85530174e-01 8.46633732e-01 9.31547046e-01 9.12716866e-01 9.03603733e-01 9.08363104e-01 8.82451773e-01 9.82252121e-01 9.39005673e-01 9.35520887e-01 9.41016495e-01 9.67953265e-01 9.67538476e-01 9.43732619e-01 9.37978923e-01 9.34827924e-01 9.40043509e-01 0. 0. 0. 0. 0. 0. 0. 0. 0. 0. 0. 0. 0. 0. 0. 0. 0. 0. 0. 0. 0. 0. 0. 0. 0. 0. 0. 0. 0. 0. 0. 0. 0. 7.11264074e-01 7.06147432e-01 7.08800673e-01 7.09424794e-01 7.09071994e-01 7.08590567e-01 7.06431389e-01 7.07815766e-01 7.10178792e-01 7.14263856e-01 7.19631076e-01 0. 0. 0. 0. 0. 0. 0. 8.16796422e-01 8.19232404e-01 8.11806381e-01 8.34204018e-01 8.27750385e-01 8.30291688e-01 8.39716613e-01 8.74017060e-01 8.41733873e-01 8.38945866e-01 8.24042857e-01 8.25429797e-01 8.30938816e-01 8.49164903e-01 8.63066435e-01 8.49354744e-01 8.74475181e-01 9.06113148e-01 8.68434548e-01 8.60120654e-01 8.55839431e-01 8.70128453e-01 8.43983352e-01 8.38758647e-01 8.96424055e-01 8.40148687e-01 8.58044267e-01 8.01740468e-01 7.98219204e-01 7.89518714e-01 7.89661348e-01 7.82496870e-01 7.74409890e-01 7.89197028e-01 7.86770225e-01 7.88076222e-01 7.95794189e-01 7.92752266e-01 8.37464333e-01 8.21510434e-01 8.21131825e-01 8.16357970e-01 8.13442409e-01 8.08826327e-01 8.09922695e-01 8.35082948e-01 8.80205274e-01 8.79429758e-01 9.02079165e-01 9.00219560e-01 9.51137662e-01 1.00577736e+00 0. 0. 0. 0. 0. 0. 0. 9.15912569e-01 9.07704055e-01 9.14559305e-01 9.69493091e-01 9.68233466e-01 9.57016110e-01 9.69146430e-01 0. 9.23694253e-01 9.43160295e-01 9.36421216e-01 0. 0. 0. 0. 0. 0. 0. 0. 0. 0. 0. 0. 0. 0. 0. 0. 0. 0. 0. 0. 0. 0. 0. 0. 0. 0. 0. 0. 0. 0. 0. 0. 0. 0. 0. 7.24721849e-01 7.21939504e-01 7.40401804e-01 7.37089932e-01 7.61850595e-01 7.49702930e-01 8.01205516e-01 8.01246345e-01 8.02594960e-01 7.91652679e-01 7.80253768e-01 0. 0. 0. 0. 0. 0. 0. 0. 0. 0. 0. 0. 0. 0. 0. 0. 0. 0. 0. 0. 0. 0. 0. 0. 0. 0. 0. 0. 0. 0. 0. 8.55325282e-01 9.21279073e-01 7.96377718e-01 9.22700822e-01 8.55002284e-01 7.90952921e-01 9.17252302e-01 9.15365219e-01 9.07232940e-01 8.62081051e-01 8.47802639e-01 8.11971843e-01 8.55853617e-01 8.44443738e-01 8.27835917e-01 8.29607606e-01 8.11624646e-01 8.68224025e-01 8.64389956e-01 8.54585409e-01 8.72459412e-01 8.70937049e-01 0. 0. 8.59102428e-01 8.58923197e-01 0. 0. 0. 0. 0. 0. 0. 0. 0. 0. 0. 0. 9.08813715e-01 1.01418519e+00 1.00556409e+00 9.98046994e-01 9.33722198e-01 9.25547898e-01 9.37051237e-01 9.50190842e-01 9.43619788e-01 9.60763752e-01 9.42628264e-01 9.45955098e-01 9.39269245e-01</data></Depth>
</opencv_storage>
